-0.355707 1.0856 2.639 197 195 193
-0.351087 1.0856 2.639 197 188 192
-0.349093 1.09383 2.659 197 188 192
-0.347159 1.10246 2.68 195 195 192
-0.342468 1.10246 2.68 192 197 192
-0.337777 1.10246 2.68 194 195 192
-0.335695 1.1111 2.701 196 198 192
-0.330967 1.1111 2.701 194 197 192
-0.328775 1.11974 2.722 192 197 193
-0.324011 1.11974 2.722 192 196 195
-0.319246 1.11974 2.722 192 196 192
-0.314481 1.11974 2.722 192 195 189
-0.309716 1.11974 2.722 192 193 189
-0.307304 1.12838 2.743 192 194 190
-0.304928 1.13743 2.765 192 196 192
-0.302584 1.14689 2.788 192 196 192
-0.297704 1.14689 2.788 191 195 195
-0.292824 1.14689 2.788 190 196 190
-0.290215 1.15594 2.81 188 193 186
-0.285296 1.15594 2.81 187 189 184
-0.282772 1.16582 2.834 188 193 183
-0.277811 1.16582 2.834 190 198 185
-0.275065 1.17528 2.857 190 196 188
-0.272332 1.18515 2.881 189 190 189
-0.267289 1.18515 2.881 189 189 190
-0.264431 1.19502 2.905 189 185 191
-0.259345 1.19502 2.905 190 189 193
-0.25426 1.19502 2.905 190 189 193
-0.251319 1.20531 2.93 192 193 191
-0.24619 1.20531 2.93 190 192 189
-0.241061 1.20531 2.93 188 192 188
-0.233919 1.19502 2.905 187 191 188
-0.230803 1.20531 2.93 186 192 189
-0.225674 1.20531 2.93 187 192 190
-0.220546 1.20531 2.93 188 192 193
-0.213579 1.19502 2.905 188 192 196
-0.210288 1.20531 2.93 188 194 192
-0.205159 1.20531 2.93 188 193 189
-0.20003 1.20531 2.93 188 194 187
-0.194901 1.20531 2.93 188 194 187
-0.189772 1.20531 2.93 189 194 186
-0.184643 1.20531 2.93 190 196 188
-0.179514 1.20531 2.93 190 193 190
-0.174385 1.20531 2.93 191 188 190
-0.169256 1.20531 2.93 191 193 191
-0.164127 1.20531 2.93 192 198 192
-0.158998 1.20531 2.93 193 196 194
-0.153869 1.20531 2.93 193 197 194
-0.14874 1.20531 2.93 191 198 194
-0.143611 1.20531 2.93 190 201 193
-0.138482 1.20531 2.93 191 199 193
-0.133353 1.20531 2.93 191 199 193
-0.128224 1.20531 2.93 192 198 193
-0.123095 1.20531 2.93 193 197 194
-0.117966 1.20531 2.93 194 200 195
-0.112837 1.20531 2.93 193 197 196
-0.107708 1.20531 2.93 193 194 195
-0.102579 1.20531 2.93 193 196 195
-0.0974503 1.20531 2.93 192 197 195
-0.0923214 1.20531 2.93 194 197 195
-0.0864484 1.19502 2.905 195 199 195
-0.0813632 1.19502 2.905 195 198 195
-0.076278 1.19502 2.905 195 199 196
-0.0711928 1.19502 2.905 195 199 196
-0.0661076 1.19502 2.905 196 198 197
-0.0610224 1.19502 2.905 197 200 197
-0.0559372 1.19502 2.905 196 199 197
-0.050852 1.19502 2.905 196 200 197
-0.0457668 1.19502 2.905 196 199 197
-0.0406816 1.19502 2.905 196 199 195
-0.0355964 1.19502 2.905 197 199 194
-0.0305112 1.19502 2.905 198 199 196
-0.025426 1.19502 2.905 198 199 199
-0.0203408 1.19502 2.905 198 200 199
-0.0152556 1.19502 2.905 198 200 200
-0.0101704 1.19502 2.905 198 200 200
-0.00500118 1.17528 2.857 198 201 200
0 1.17528 2.857 198 201 200
0.00500118 1.17528 2.857 199 201 200
0.0100024 1.17528 2.857 200 201 200
0.0150035 1.17528 2.857 202 202 200
0.0200047 1.17528 2.857 200 201 200
0.0250059 1.17528 2.857 197 202 202
0.0300071 1.17528 2.857 200 202 204
0.0350083 1.17528 2.857 202 203 202
0.0400094 1.17528 2.857 201 203 201
0.0446483 1.16582 2.834 199 204 201
0.0496092 1.16582 2.834 199 204 201
0.0545701 1.16582 2.834 199 203 201
0.059531 1.16582 2.834 199 204 203
0.0644919 1.16582 2.834 199 204 205
0.0694528 1.16582 2.834 198 204 204
0.0744138 1.16582 2.834 200 206 203
0.0787025 1.15594 2.81 202 207 200
0.0836214 1.15594 2.81 201 205 198
0.0885403 1.15594 2.81 200 206 201
0.0934592 1.15594 2.81 201 206 204
0.0983781 1.15594 2.81 202 207 204
0.103297 1.15594 2.81 202 204 205
0.108216 1.15594 2.81 202 204 205
0.113135 1.15594 2.81 202 201 205
0.118054 1.15594 2.81 201 204 205
0.122973 1.15594 2.81 201 206 206
0.127892 1.15594 2.81 201 205 208
0.13281 1.15594 2.81 202 206 207
0.137729 1.15594 2.81 204 208 206
0.142648 1.15594 2.81 205 211 207
0.147567 1.15594 2.81 205 208 208
0.152486 1.15594 2.81 204 208 210
0.158749 1.16582 2.834 206 208 212
0.16371 1.16582 2.834 207 209 211
0.167243 1.15594 2.81 207 209 211
0.172162 1.15594 2.81 206 208 211
0.177081 1.15594 2.81 205 209 210
0.181999 1.15594 2.81 204 208 210
0.186918 1.15594 2.81 204 207 210
0.191837 1.15594 2.81 205 208 210
0.196756 1.15594 2.81 207 211 212
0.201675 1.15594 2.81 208 211 214
0.206594 1.15594 2.81 210 212 212
0.211513 1.15594 2.81 207 210 211
0.216432 1.15594 2.81 204 208 212
0.221351 1.15594 2.81 205 210 213
0.22627 1.15594 2.81 205 210 213
0.231189 1.15594 2.81 205 212 213
0.236107 1.15594 2.81 206 210 213
0.241026 1.15594 2.81 207 211 213
0.245945 1.15594 2.81 208 211 214
0.250864 1.15594 2.81 208 212 212
0.255783 1.15594 2.81 209 211 211
0.260702 1.15594 2.81 211 211 213
0.265621 1.15594 2.81 210 211 216
0.268422 1.14689 2.788 209 209 212
0.273302 1.14689 2.788 210 211 209
0.278182 1.14689 2.788 210 212 212
0.283063 1.14689 2.788 210 212 212
0.287943 1.14689 2.788 211 213 216
0.292824 1.14689 2.788 211 214 213
0.295248 1.13743 2.765 211 213 211
0.302584 1.14689 2.788 211 214 213
0.307465 1.14689 2.788 210 214 215
0.312345 1.14689 2.788 208 215 214
0.317226 1.14689 2.788 210 215 213
0.319449 1.13743 2.765 212 216 215
0.324289 1.13743 2.765 212 215 217
0.329129 1.13743 2.765 212 215 218
0.333969 1.13743 2.765 212 215 218
0.338809 1.13743 2.765 213 215 219
0.343649 1.13743 2.765 214 214 219
0.34849 1.13743 2.765 215 215 219
0.35333 1.13743 2.765 217 218 219
0.35817 1.13743 2.765 214 215 219
0.36301 1.13743 2.765 211 215 220
0.36785 1.13743 2.765 211 218 221
0.37269 1.13743 2.765 212 218 222
0.37753 1.13743 2.765 214 218 224
0.382371 1.13743 2.765 215 223 222
0.387211 1.13743 2.765 216 220 221
0.388931 1.12838 2.743 216 220 221
0.393733 1.12838 2.743 216 219 222
0.398535 1.12838 2.743 216 218 223
0.403336 1.12838 2.743 216 218 223
0.408138 1.12838 2.743 215 218 223
0.412939 1.12838 2.743 215 220 224
0.417741 1.12838 2.743 215 221 226
0.422543 1.12838 2.743 216 221 223
0.427344 1.12838 2.743 216 217 221
0.432146 1.12838 2.743 217 217 222
0.436948 1.12838 2.743 216 218 223
0.438367 1.11974 2.722 215 220 220
0.446551 1.12838 2.743 215 220 220
0.451352 1.12838 2.743 218 220 218
0.459813 1.13743 2.765 224 221 222
0.460956 1.12838 2.743 221 220 224
0.465757 1.12838 2.743 218 218 226
0.470559 1.12838 2.743 219 219 228
0.475361 1.12838 2.743 220 223 225
0.480162 1.12838 2.743 218 227 223
0.481251 1.11974 2.722 216 221 224
0.486016 1.11974 2.722 218 224 226
0.490781 1.11974 2.722 220 224 224
0.495546 1.11974 2.722 220 223 223
0.50031 1.11974 2.722 220 223 225
0.505075 1.11974 2.722 220 223 225
0.50984 1.11974 2.722 223 223 227
0.514605 1.11974 2.722 226 224 228
0.51937 1.11974 2.722 223 225 229
0.524135 1.11974 2.722 220 224 226
0.5289 1.11974 2.722 221 224 224
0.533664 1.11974 2.722 223 225 226
0.538429 1.11974 2.722 223 227 228
0.543194 1.11974 2.722 224 224 228
0.543732 1.1111 2.701 222 221 228
0.552724 1.11974 2.722 220 222 227
0.557489 1.11974 2.722 224 227 227
0.562254 1.11974 2.722 224 227 227
0.567018 1.11974 2.722 228 224 227
0.571783 1.11974 2.722 227 227 228
0.576548 1.11974 2.722 226 226 227
0.581313 1.11974 2.722 225 226 227
0.581556 1.1111 2.701 224 225 229
0.586284 1.1111 2.701 225 226 231
0.591013 1.1111 2.701 226 226 230
0.595741 1.1111 2.701 227 226 228
0.600469 1.1111 2.701 229 226 229
0.605197 1.1111 2.701 228 227 230
0.609925 1.1111 2.701 227 226 230
0.614653 1.1111 2.701 227 226 230
0.619381 1.1111 2.701 224 226 231
0.619257 1.10246 2.68 221 225 230
0.623948 1.10246 2.68 223 225 230
0.633565 1.1111 2.701 225 227 232
0.638294 1.1111 2.701 224 227 233
0.638022 1.10246 2.68 223 228 234
0.642714 1.10246 2.68 226 229 235
0.647405 1.10246 2.68 230 229 235
0.652096 1.10246 2.68 229 230 235
0.656788 1.10246 2.68 229 232 236
0.661479 1.10246 2.68 229 237 237
0.66617 1.10246 2.68 229 233 236
0.676118 1.1111 2.701 229 233 236
0.680847 1.1111 2.701 229 235 235
0.685575 1.1111 2.701 230 234 233
0.690303 1.1111 2.701 230 233 232
0.689627 1.10246 2.68 231 233 235
0.694318 1.10246 2.68 233 232 239
0.693532 1.09383 2.659 235 233 238
0.698187 1.09383 2.659 233 238 237
0.697555 1.0856 2.639 231 233 237
0.696853 1.07737 2.619 233 233 238
0.701438 1.07737 2.619 235 234 237
0.706022 1.07737 2.619 233 234 237
0.710607 1.07737 2.619 233 234 237
0.715191 1.07737 2.619 231 234 239
0.719776 1.07737 2.619 229 233 241
0.729892 1.0856 2.639 228 233 239
0.740078 1.09383 2.659 230 234 238
0.739131 1.0856 2.639 232 233 237
0.743751 1.0856 2.639 232 234 236
0.74837 1.0856 2.639 232 234 236
0.75299 1.0856 2.639 231 233 236
0.757609 1.0856 2.639 230 232 236
0.762229 1.0856 2.639 232 232 236
0.766849 1.0856 2.639 234 237 239
0.765621 1.07737 2.619 234 239 242
0.770206 1.07737 2.619 234 239 242
0.774791 1.07737 2.619 235 237 240
0.779375 1.07737 2.619 235 236 238
0.78396 1.07737 2.619 235 238 239
0.788544 1.07737 2.619 231 239 241
0.793129 1.07737 2.619 228 234 241
0.797713 1.07737 2.619 232 227 241
0.802298 1.07737 2.619 237 236 240
0.813044 1.0856 2.639 237 239 240
0.817664 1.0856 2.639 238 238 240
0.816052 1.07737 2.619 237 239 241
0.820636 1.07737 2.619 236 239 242
0.825221 1.07737 2.619 236 239 242
0.829805 1.07737 2.619 236 239 242
0.83439 1.07737 2.619 236 238 243
0.838974 1.07737 2.619 236 237 243
0.843559 1.07737 2.619 237 240 242
0.841667 1.06914 2.599 238 241 242
0.852728 1.07737 2.619 239 241 243
0.850766 1.06914 2.599 239 241 244
0.855315 1.06914 2.599 239 241 243
0.859865 1.06914 2.599 238 242 243
0.864414 1.06914 2.599 237 239 241
0.868964 1.06914 2.599 238 239 239
0.873514 1.06914 2.599 239 240 240
0.878063 1.06914 2.599 239 241 242
0.882613 1.06914 2.599 239 241 242
0.887162 1.06914 2.599 240 240 242
0.891712 1.06914 2.599 238 239 242
0.896261 1.06914 2.599 236 239 243
0.900811 1.06914 2.599 238 241 244
0.912327 1.07737 2.619 241 242 244
0.916912 1.07737 2.619 239 243 246
0.914459 1.06914 2.599 238 242 245
0.919009 1.06914 2.599 238 241 245
0.930666 1.07737 2.619 239 241 245
0.928108 1.06914 2.599 238 241 245
0.932658 1.06914 2.599 238 243 245
0.937207 1.06914 2.599 239 242 245
0.941757 1.06914 2.599 241 242 245
0.946306 1.06914 2.599 241 242 245
0.950856 1.06914 2.599 241 242 245
0.955405 1.06914 2.599 241 241 244
0.959955 1.06914 2.599 241 242 244
0.964505 1.06914 2.599 241 244 245
0.969054 1.06914 2.599 242 244 246
0.973604 1.06914 2.599 244 244 246
0.978153 1.06914 2.599 243 243 246
0.982703 1.06914 2.599 243 243 245
0.987252 1.06914 2.599 242 243 244
0.991802 1.06914 2.599 242 245 246
0.989067 1.06133 2.58 242 244 248
1.0009 1.06914 2.599 243 237 246
0.9981 1.06133 2.58 243 242 244
1.01 1.06914 2.599 243 242 244
1.00713 1.06133 2.58 244 244 244
1.01165 1.06133 2.58 242 242 244
1.01617 1.06133 2.58 241 243 245
1.02068 1.06133 2.58 242 244 247
1.01725 1.0531 2.56 243 245 246
1.02173 1.0531 2.56 243 244 246
1.02621 1.0531 2.56 244 245 246
1.03069 1.0531 2.56 244 244 246
1.03518 1.0531 2.56 244 243 246
1.03966 1.0531 2.56 244 245 247
1.04414 1.0531 2.56 245 247 247
1.04862 1.0531 2.56 243 245 248
1.0531 1.0531 2.56 241 244 245
1.05758 1.0531 2.56 241 244 245
1.06206 1.0531 2.56 242 242 242
1.06654 1.0531 2.56 242 243 244
1.0635 1.0457 2.542 243 244 246
1.06795 1.0457 2.542 244 245 245
1.07239 1.0457 2.542 243 244 245
1.07684 1.0457 2.542 241 245 246
1.08895 1.0531 2.56 242 242 247
1.09343 1.0531 2.56 242 243 246
1.09019 1.0457 2.542 242 243 246
1.09464 1.0457 2.542 243 244 245
1.10688 1.0531 2.56 242 243 245
1.10354 1.0457 2.542 242 243 245
1.10799 1.0457 2.542 244 242 245
1.11244 1.0457 2.542 245 243 245
1.10854 1.03788 2.523 245 243 245
1.11296 1.03788 2.523 243 243 246
1.11738 1.03788 2.523 241 244 246
1.12179 1.03788 2.523 242 243 246
1.12621 1.03788 2.523 244 244 246
1.13914 1.0457 2.542 244 244 246
1.14359 1.0457 2.542 244 244 244
1.14804 1.0457 2.542 244 244 243
1.15249 1.0457 2.542 244 244 244
1.15694 1.0457 2.542 244 244 246
1.16139 1.0457 2.542 243 244 246
1.16584 1.0457 2.542 244 244 246
1.17029 1.0457 2.542 244 244 246
1.17474 1.0457 2.542 243 243 247
1.17038 1.03788 2.523 243 243 246
1.17479 1.03788 2.523 243 243 246
1.17921 1.03788 2.523 243 243 246
1.18363 1.03788 2.523 244 243 246
1.18804 1.03788 2.523 244 243 246
1.19246 1.03788 2.523 244 244 246
1.19687 1.03788 2.523 243 245 246
1.20129 1.03788 2.523 243 243 245
1.20571 1.03788 2.523 243 243 245
1.21012 1.03788 2.523 244 243 246
1.21454 1.03788 2.523 244 244 246
1.21896 1.03788 2.523 244 244 246
1.22337 1.03788 2.523 245 244 246
1.23704 1.0457 2.542 246 245 246
1.23221 1.03788 2.523 246 246 246
1.23662 1.03788 2.523 246 245 246
1.24104 1.03788 2.523 244 244 247
1.24546 1.03788 2.523 243 244 246
1.24096 1.03048 2.505 243 244 246
1.24534 1.03048 2.505 244 245 245
1.24973 1.03048 2.505 245 243 245
1.25411 1.03048 2.505 243 243 244
1.24945 1.02307 2.487 242 242 244
1.25381 1.02307 2.487 241 242 244
1.24905 1.01567 2.469 241 242 244
1.25338 1.01567 2.469 240 242 245
1.2577 1.01567 2.469 239 242 245
1.26202 1.01567 2.469 241 243 245
1.26634 1.01567 2.469 243 242 245
1.27066 1.01567 2.469 245 242 245
1.26569 1.00826 2.451 247 243 245
1.26998 1.00826 2.451 242 243 246
1.27427 1.00826 2.451 238 243 246
1.27856 1.00826 2.451 240 243 246
1.28285 1.00826 2.451 243 243 246
1.28714 1.00826 2.451 243 243 246
1.28248 1.00127 2.434 244 243 246
1.27775 0.994275 2.417 246 244 245
1.28198 0.994275 2.417 244 243 245
1.28621 0.994275 2.417 243 242 245
1.28137 0.987282 2.4 243 243 245
1.277 0.9807 2.384 244 243 245
1.28117 0.9807 2.384 244 243 246
1.28534 0.9807 2.384 244 244 246
1.28952 0.9807 2.384 244 245 246
1.29369 0.9807 2.384 244 244 245
1.28861 0.973707 2.367 243 243 245
1.29275 0.973707 2.367 243 243 245
1.29689 0.973707 2.367 244 245 245
1.30104 0.973707 2.367 245 242 245
1.29636 0.967125 2.351 244 241 245
1.29162 0.960543 2.335 244 243 244
1.29571 0.960543 2.335 243 244 244
1.2998 0.960543 2.335 243 244 244
1.30389 0.960543 2.335 242 241 244
-0.783188 0.587391 1.434 216 217 213
-0.780677 0.587391 1.434 213 215 213
-0.778167 0.587391 1.434 215 216 214
-0.775657 0.587391 1.434 216 219 213
-0.773147 0.587391 1.434 216 219 213
-0.770637 0.587391 1.434 218 218 212
-0.768126 0.587391 1.434 219 213 208
-0.76882 0.589849 1.44 218 217 204
-0.763106 0.587391 1.434 217 220 209
-0.760596 0.587391 1.434 214 219 214
-0.761257 0.589849 1.44 212 217 215
-0.761898 0.592306 1.446 214 218 216
-0.759367 0.592306 1.446 216 220 217
-0.759976 0.594764 1.452 215 215 218
-0.757434 0.594764 1.452 214 207 214
-0.754893 0.594764 1.452 212 210 211
-0.752351 0.594764 1.452 211 213 211
-0.752908 0.597222 1.458 215 216 211
-0.750355 0.597222 1.458 218 215 212
-0.747803 0.597222 1.458 216 218 214
-0.745251 0.597222 1.458 214 219 214
-0.745755 0.599679 1.464 215 218 215
-0.746238 0.602137 1.47 217 216 216
-0.743665 0.602137 1.47 216 217 218
-0.744621 0.605004 1.477 216 217 214
-0.742035 0.605004 1.477 216 217 210
-0.742454 0.607462 1.483 216 217 210
-0.739858 0.607462 1.483 216 218 212
-0.737262 0.607462 1.483 216 218 214
-0.737638 0.60992 1.489 217 219 215
-0.738487 0.612787 1.496 216 218 216
-0.735868 0.612787 1.496 216 218 217
-0.733249 0.612787 1.496 215 219 218
-0.730631 0.612787 1.496 214 218 219
-0.730932 0.615245 1.502 217 219 220
-0.731697 0.618112 1.509 220 221 219
-0.729055 0.618112 1.509 219 220 218
-0.729302 0.62057 1.515 217 218 218
-0.72665 0.62057 1.515 217 218 218
-0.723998 0.62057 1.515 218 217 217
-0.721346 0.62057 1.515 218 218 216
-0.725335 0.626304 1.529 218 217 217
-0.722659 0.626304 1.529 217 221 219
-0.719982 0.626304 1.529 217 222 217
-0.72059 0.629172 1.536 217 220 215
-0.717901 0.629172 1.536 218 220 216
-0.718006 0.631629 1.542 219 220 218
-0.715307 0.631629 1.542 219 220 218
-0.715842 0.634497 1.549 220 220 216
-0.713131 0.634497 1.549 220 219 215
-0.71363 0.637364 1.556 220 220 216
-0.710906 0.637364 1.556 219 220 218
-0.708182 0.637364 1.556 219 219 218
-0.705459 0.637364 1.556 218 219 218
-0.705896 0.640231 1.563 217 217 217
-0.70316 0.640231 1.563 217 215 217
-0.704009 0.643508 1.571 217 216 218
-0.701259 0.643508 1.571 217 216 218
-0.701621 0.646376 1.578 218 217 214
-0.698859 0.646376 1.578 218 217 210
-0.699185 0.649243 1.585 218 217 213
-0.69641 0.649243 1.585 218 218 217
-0.696699 0.65211 1.592 218 216 214
-0.693912 0.65211 1.592 219 215 211
-0.694598 0.655387 1.6 220 217 214
-0.691798 0.655387 1.6 220 217 214
-0.688997 0.655387 1.6 218 218 217
-0.689198 0.658255 1.607 217 217 218
-0.689802 0.661532 1.615 217 218 220
-0.689953 0.664399 1.622 218 217 217
-0.687113 0.664399 1.622 217 216 214
-0.687649 0.667676 1.63 217 219 214
-0.684796 0.667676 1.63 205 222 214
-0.681942 0.667676 1.63 194 191 200
-0.685338 0.67382 1.645 186 187 187
-0.682459 0.67382 1.645 179 187 187
-0.682884 0.677097 1.653 179 180 186
-0.683281 0.680374 1.661 179 181 184
-0.680374 0.680374 1.661 192 186 182
-0.680729 0.683651 1.669 205 196 188
-0.674559 0.680374 1.661 206 199 195
-0.678121 0.686928 1.677 208 199 196
-0.678809 0.690614 1.686 205 199 198
-0.679065 0.693891 1.694 205 199 198
-0.679292 0.697168 1.702 202 201 199
-0.679889 0.700855 1.711 203 203 200
-0.680059 0.704132 1.719 204 203 200
-0.67705 0.704132 1.719 203 203 200
-0.67757 0.707818 1.728 203 202 198
-0.674545 0.707818 1.728 204 204 196
-0.674629 0.711095 1.736 206 206 200
-0.675072 0.714782 1.745 205 204 204
-0.672017 0.714782 1.745 204 203 202
-0.668962 0.714782 1.745 204 204 200
-0.669342 0.718468 1.754 205 204 203
-0.666272 0.718468 1.754 205 205 205
-0.663201 0.718468 1.754 205 204 204
-0.660131 0.718468 1.754 205 204 203
-0.660432 0.722155 1.763 206 205 201
-0.657346 0.722155 1.763 206 205 201
-0.6576 0.725841 1.772 255 0 0
-0.657822 0.729528 1.781 255 0 0
-0.658013 0.733214 1.79 255 0 0
-0.658538 0.737311 1.8 255 0 0
-0.655387 0.737311 1.8 255 0 0
-0.655497 0.740997 1.809 206 205 199
-0.655937 0.745093 1.819 204 206 197
-0.652753 0.745093 1.819 203 205 199
-0.652782 0.74878 1.828 202 204 200
-0.649583 0.74878 1.828 202 204 203
-0.649919 0.752876 1.838 203 205 205
-0.65022 0.756972 1.848 204 204 204
-0.646985 0.756972 1.848 204 203 203
-0.647233 0.761068 1.858 205 204 201
-0.643981 0.761068 1.858 204 204 200
-0.640729 0.761068 1.858 204 204 200
-0.637476 0.761068 1.858 204 205 199
-0.637637 0.765165 1.868 207 206 198
-0.634367 0.765165 1.868 206 208 200
-0.631097 0.765165 1.868 204 208 203
-0.631188 0.769261 1.878 202 209 204
-0.627901 0.769261 1.878 204 208 205
-0.624613 0.769261 1.878 206 210 204
-0.621326 0.769261 1.878 206 210 204
-0.621329 0.773357 1.888 205 208 203
-0.618025 0.773357 1.888 205 207 202
-0.618301 0.777863 1.899 205 208 201
-0.614977 0.777863 1.899 204 207 201
-0.614874 0.781959 1.909 204 205 202
-0.615056 0.786465 1.92 203 205 204
-0.611695 0.786465 1.92 203 205 204
-0.611819 0.79097 1.931 203 208 205
-0.61159 0.795067 1.941 203 207 206
-0.608192 0.795067 1.941 204 207 204
-0.604794 0.795067 1.941 205 206 202
-0.604805 0.799572 1.952 206 206 201
-0.601388 0.799572 1.952 205 206 201
-0.597971 0.799572 1.952 205 206 201
-0.594554 0.799572 1.952 203 206 202
-0.594771 0.804488 1.964 202 208 202
-0.594645 0.808994 1.975 203 206 202
-0.59448 0.813499 1.986 204 205 201
-0.591004 0.813499 1.986 203 206 201
-0.591077 0.818415 1.998 203 207 203
-0.58758 0.818415 1.998 203 207 205
-0.587298 0.822921 2.009 203 207 205
-0.583781 0.822921 2.009 204 208 204
-0.58373 0.827836 2.021 204 206 203
-0.583638 0.832751 2.033 204 207 202
-0.580079 0.832751 2.033 204 207 201
-0.579923 0.837667 2.045 205 210 202
-0.576343 0.837667 2.045 204 209 204
-0.576125 0.842582 2.057 204 208 207
-0.572524 0.842582 2.057 203 205 211
-0.572242 0.847498 2.069 203 205 207
-0.56862 0.847498 2.069 201 207 203
-0.564998 0.847498 2.069 200 208 203
-0.564904 0.852823 2.082 201 205 203
-0.561259 0.852823 2.082 203 206 203
-0.557615 0.852823 2.082 203 206 203
-0.55397 0.852823 2.082 203 205 203
-0.550326 0.852823 2.082 203 200 203
-0.550095 0.858148 2.095 203 205 203
-0.543037 0.852823 2.082 203 205 202
-0.545869 0.863063 2.107 204 202 202
-0.542181 0.863063 2.107 205 200 202
-0.541815 0.868388 2.12 203 203 203
-0.538104 0.868388 2.12 202 205 203
-0.53767 0.873713 2.133 202 204 203
-0.533936 0.873713 2.133 202 206 206
-0.530202 0.873713 2.133 202 204 210
-0.529924 0.879448 2.147 202 202 206
-0.526165 0.879448 2.147 202 202 206
-0.52557 0.884773 2.16 201 204 203
-0.521789 0.884773 2.16 201 206 203
-0.521365 0.890507 2.174 201 205 204
-0.51756 0.890507 2.174 202 205 202
-0.513754 0.890507 2.174 205 203 201
-0.512998 0.895832 2.187 207 203 201
-0.50917 0.895832 2.187 204 202 202
-0.505341 0.895832 2.187 201 202 202
-0.507934 0.907302 2.215 202 203 202
-0.504056 0.907302 2.215 204 206 201
-0.503566 0.913446 2.23 202 204 200
-0.499663 0.913446 2.23 201 203 200
-0.498872 0.919181 2.244 201 203 200
-0.494943 0.919181 2.244 201 203 200
-0.491015 0.919181 2.244 201 204 199
-0.487087 0.919181 2.244 202 203 199
-0.483159 0.919181 2.244 203 203 200
-0.482434 0.925325 2.259 202 203 201
-0.47848 0.925325 2.259 201 203 200
-0.474526 0.925325 2.259 201 201 200
-0.470571 0.925325 2.259 201 201 203
-0.472814 0.937613 2.289 202 202 206
-0.468807 0.937613 2.289 204 201 203
-0.4648 0.937613 2.289 201 201 201
-0.463812 0.943758 2.304 198 198 202
-0.459779 0.943758 2.304 199 201 204
-0.455746 0.943758 2.304 199 201 204
-0.457791 0.956456 2.335 201 204 201
-0.456812 0.96301 2.351 200 202 199
-0.452697 0.96301 2.351 199 199 201
-0.451634 0.969563 2.367 199 201 203
-0.447491 0.969563 2.367 199 201 200
-0.443347 0.969563 2.367 199 200 197
-0.442358 0.976527 2.384 199 198 197
-0.438185 0.976527 2.384 198 199 197
-0.434012 0.976527 2.384 198 199 197
-0.432724 0.983081 2.4 197 199 198
-0.428522 0.983081 2.4 195 200 200
-0.424321 0.983081 2.4 197 200 202
-0.423096 0.990044 2.417 197 200 202
-0.418865 0.990044 2.417 199 200 199
-0.41755 0.997008 2.434 199 200 196
-0.416176 1.00397 2.451 200 201 197
-0.411886 1.00397 2.451 198 199 198
-0.407595 1.00397 2.451 197 199 199
-0.406267 1.01134 2.469 195 198 200
-0.404875 1.01872 2.487 194 197 198
-0.400521 1.01872 2.487 195 198 196
-0.396168 1.01872 2.487 197 197 192
-0.39465 1.02609 2.505 196 198 189
-0.390265 1.02609 2.505 196 199 194
-0.388653 1.03346 2.523 196 197 200
-0.384237 1.03346 2.523 196 197 200
-0.38268 1.04125 2.542 195 194 197
-0.380909 1.04862 2.56 196 202 194
-0.376428 1.04862 2.56 198 198 193
-0.371946 1.04862 2.56 197 196 193
-0.370336 1.05681 2.58 196 197 194
-0.368514 1.06459 2.599 195 198 196
-0.363964 1.06459 2.599 195 197 194
-0.36218 1.07279 2.619 195 196 193
-0.360326 1.08098 2.639 196 196 194
-0.355707 1.08098 2.639 198 194 195
-0.351087 1.08098 2.639 200 195 192
-0.349093 1.08917 2.659 200 195 192
-0.347159 1.09777 2.68 195 202 190
-0.342468 1.09777 2.68 191 197 191
-0.337777 1.09777 2.68 192 195 192
-0.335695 1.10638 2.701 193 195 192
-0.330967 1.10638 2.701 192 195 193
-0.328775 1.11498 2.722 192 195 191
-0.324011 1.11498 2.722 192 194 190
-0.319246 1.11498 2.722 193 195 189
-0.314481 1.11498 2.722 193 197 189
-0.309716 1.11498 2.722 193 194 189
-0.307304 1.12358 2.743 193 194 189
-0.304928 1.13259 2.765 193 193 190
-0.302584 1.14201 2.788 193 193 190
-0.297704 1.14201 2.788 192 193 192
-0.292824 1.14201 2.788 191 193 189
-0.290215 1.15102 2.81 188 193 187
-0.285296 1.15102 2.81 186 193 184
-0.282772 1.16085 2.834 188 195 182
-0.277811 1.16085 2.834 190 196 185
-0.275065 1.17028 2.857 189 201 188
-0.272332 1.18011 2.881 189 193 188
-0.269516 1.18994 2.905 189 191 188
-0.264431 1.18994 2.905 189 189 189
-0.259345 1.18994 2.905 189 191 190
-0.256448 1.20018 2.93 189 191 190
-0.251319 1.20018 2.93 190 192 189
-0.24619 1.20018 2.93 189 191 188
-0.241061 1.20018 2.93 189 191 186
-0.235932 1.20018 2.93 188 191 185
-0.230803 1.20018 2.93 188 192 186
-0.225674 1.20018 2.93 188 195 188
-0.220546 1.20018 2.93 189 191 190
-0.215417 1.20018 2.93 189 192 192
-0.210288 1.20018 2.93 189 192 190
-0.205159 1.20018 2.93 188 191 188
-0.20003 1.20018 2.93 188 192 185
-0.194901 1.20018 2.93 188 192 185
-0.189772 1.20018 2.93 189 194 182
-0.184643 1.20018 2.93 191 194 185
-0.179514 1.20018 2.93 191 196 189
-0.174385 1.20018 2.93 192 193 190
-0.169256 1.20018 2.93 192 195 192
-0.164127 1.20018 2.93 193 195 192
-0.158998 1.20018 2.93 193 195 193
-0.153869 1.20018 2.93 193 196 193
-0.14874 1.20018 2.93 190 198 194
-0.143611 1.20018 2.93 187 199 193
-0.138482 1.20018 2.93 190 202 193
-0.133353 1.20018 2.93 190 202 193
-0.128224 1.20018 2.93 194 197 194
-0.123095 1.20018 2.93 195 197 195
-0.117966 1.20018 2.93 197 197 195
-0.112837 1.20018 2.93 195 196 196
-0.107708 1.20018 2.93 194 195 195
-0.102579 1.20018 2.93 192 196 194
-0.0974503 1.20018 2.93 191 196 193
-0.0915336 1.18994 2.905 193 197 192
-0.0864484 1.18994 2.905 195 198 193
-0.0813632 1.18994 2.905 195 199 194
-0.076278 1.18994 2.905 196 198 196
-0.0711928 1.18994 2.905 196 198 196
-0.0661076 1.18994 2.905 196 199 197
-0.0610224 1.18994 2.905 197 199 199
-0.0559372 1.18994 2.905 197 200 200
-0.050852 1.18994 2.905 197 200 199
-0.0457668 1.18994 2.905 196 201 198
-0.0406816 1.18994 2.905 196 199 194
-0.0355964 1.18994 2.905 196 199 190
-0.0305112 1.18994 2.905 197 199 194
-0.025426 1.18994 2.905 197 199 198
-0.0203408 1.18994 2.905 197 199 199
-0.0152556 1.18994 2.905 197 199 199
-0.0101704 1.18994 2.905 197 199 199
-0.00500118 1.17028 2.857 197 199 200
0 1.17028 2.857 197 198 201
0.00504319 1.18011 2.881 198 200 201
0.0100024 1.17028 2.857 198 202 201
0.0150035 1.17028 2.857 199 201 200
0.0200047 1.17028 2.857 199 200 199
0.0250059 1.17028 2.857 200 202 200
0.0300071 1.17028 2.857 202 203 201
0.0350083 1.17028 2.857 205 202 201
0.0400094 1.17028 2.857 202 202 201
0.0446483 1.16085 2.834 199 202 200
0.0496092 1.16085 2.834 199 202 200
0.0545701 1.16085 2.834 199 202 200
0.059531 1.16085 2.834 199 203 204
0.0644919 1.16085 2.834 199 204 208
0.0700165 1.17028 2.857 199 205 206
0.0744138 1.16085 2.834 200 206 204
0.0793747 1.16085 2.834 201 206 202
0.0843356 1.16085 2.834 201 205 200
0.0885403 1.15102 2.81 201 206 201
0.0934592 1.15102 2.81 201 207 203
0.0983781 1.15102 2.81 202 205 205
0.103297 1.15102 2.81 202 205 207
0.108216 1.15102 2.81 202 205 207
0.113135 1.15102 2.81 202 204 206
0.118054 1.15102 2.81 201 204 205
0.122973 1.15102 2.81 200 205 207
0.127892 1.15102 2.81 201 205 209
0.13281 1.15102 2.81 202 206 207
0.137729 1.15102 2.81 204 209 206
0.142648 1.15102 2.81 206 208 207
0.147567 1.15102 2.81 205 208 207
0.153788 1.16085 2.834 204 207 209
0.158749 1.16085 2.834 205 208 210
0.16371 1.16085 2.834 207 208 210
0.168671 1.16085 2.834 207 208 210
0.173632 1.16085 2.834 206 209 209
0.177081 1.15102 2.81 206 208 210
0.181999 1.15102 2.81 205 208 211
0.186918 1.15102 2.81 205 208 210
0.191837 1.15102 2.81 206 209 210
0.196756 1.15102 2.81 207 210 210
0.201675 1.15102 2.81 209 210 211
0.206594 1.15102 2.81 211 211 210
0.211513 1.15102 2.81 206 210 209
0.21828 1.16085 2.834 202 210 210
0.221351 1.15102 2.81 203 210 211
0.22627 1.15102 2.81 203 210 211
0.231189 1.15102 2.81 205 211 211
0.234259 1.14201 2.788 206 210 210
0.241026 1.15102 2.81 207 210 213
0.24402 1.14201 2.788 207 211 215
0.2489 1.14201 2.788 207 210 211
0.253781 1.14201 2.788 208 211 207
0.260702 1.15102 2.81 209 211 211
0.263541 1.14201 2.788 209 212 215
0.268422 1.14201 2.788 210 211 213
0.273302 1.14201 2.788 210 211 212
0.278182 1.14201 2.788 211 212 213
0.283063 1.14201 2.788 211 212 213
0.287943 1.14201 2.788 211 215 215
0.292824 1.14201 2.788 211 214 214
0.295248 1.13259 2.765 210 212 213
0.302584 1.14201 2.788 210 213 214
0.307465 1.14201 2.788 209 213 215
0.312345 1.14201 2.788 208 214 214
0.317226 1.14201 2.788 210 215 214
0.322106 1.14201 2.788 213 215 215
0.324289 1.13259 2.765 212 215 217
0.329129 1.13259 2.765 212 214 218
0.333969 1.13259 2.765 212 214 218
0.338809 1.13259 2.765 213 215 219
0.343649 1.13259 2.765 214 215 219
0.34849 1.13259 2.765 214 217 220
0.35333 1.13259 2.765 215 217 219
0.35817 1.13259 2.765 212 216 219
0.36301 1.13259 2.765 210 217 218
0.36785 1.13259 2.765 211 222 217
0.37269 1.13259 2.765 213 218 219
0.37753 1.13259 2.765 214 218 221
0.382371 1.13259 2.765 215 219 221
0.38413 1.12358 2.743 215 218 222
0.388931 1.12358 2.743 215 218 222
0.393733 1.12358 2.743 216 218 222
0.398535 1.12358 2.743 215 216 222
0.403336 1.12358 2.743 215 217 223
0.408138 1.12358 2.743 215 218 223
0.412939 1.12358 2.743 215 220 224
0.417741 1.12358 2.743 215 221 226
0.422543 1.12358 2.743 216 221 223
0.427344 1.12358 2.743 216 217 221
0.432146 1.12358 2.743 217 217 222
0.436948 1.12358 2.743 216 218 223
0.438367 1.11498 2.722 215 220 220
0.443132 1.11498 2.722 215 220 220
0.451352 1.12358 2.743 218 220 218
0.456154 1.12358 2.743 221 221 220
0.460956 1.12358 2.743 220 218 223
0.465757 1.12358 2.743 218 214 226
0.470559 1.12358 2.743 219 220 229
0.475361 1.12358 2.743 220 221 225
0.480162 1.12358 2.743 218 221 221
0.481251 1.11498 2.722 217 216 222
0.486016 1.11498 2.722 218 221 224
0.490781 1.11498 2.722 220 224 223
0.495546 1.11498 2.722 218 223 222
0.50031 1.11498 2.722 217 225 224
0.505075 1.11498 2.722 217 225 224
0.50984 1.11498 2.722 220 224 227
0.514605 1.11498 2.722 223 224 226
0.523377 1.12358 2.743 222 223 226
0.528178 1.12358 2.743 220 222 223
0.5289 1.11498 2.722 221 223 221
0.533664 1.11498 2.722 222 222 224
0.538429 1.11498 2.722 223 224 227
0.543194 1.11498 2.722 223 224 227
0.543732 1.10638 2.701 222 224 228
0.552724 1.11498 2.722 222 226 227
0.557489 1.11498 2.722 224 227 227
0.562254 1.11498 2.722 224 227 227
0.567018 1.11498 2.722 226 229 228
0.571783 1.11498 2.722 225 227 229
0.5721 1.10638 2.701 225 226 230
0.581313 1.11498 2.722 225 226 231
0.581556 1.10638 2.701 225 226 230
0.586284 1.10638 2.701 225 225 230
0.591013 1.10638 2.701 225 225 229
0.595741 1.10638 2.701 226 225 229
0.600469 1.10638 2.701 228 226 230
0.605197 1.10638 2.701 227 226 231
0.609925 1.10638 2.701 226 228 231
0.614653 1.10638 2.701 226 228 231
0.614566 1.09777 2.68 224 227 231
0.619257 1.09777 2.68 223 228 231
0.623948 1.09777 2.68 224 228 232
0.62864 1.09777 2.68 226 231 233
0.633331 1.09777 2.68 225 228 234
0.638022 1.09777 2.68 224 227 232
0.642714 1.09777 2.68 226 227 231
0.647405 1.09777 2.68 228 229 233
0.652096 1.09777 2.68 228 230 235
0.656788 1.09777 2.68 229 231 236
0.666662 1.10638 2.701 229 234 238
0.67139 1.10638 2.701 229 236 236
0.676118 1.10638 2.701 229 236 236
0.680847 1.10638 2.701 230 234 235
0.685575 1.10638 2.701 230 233 232
0.690303 1.10638 2.701 230 233 230
0.689627 1.09777 2.68 230 234 235
0.694318 1.09777 2.68 231 232 241
0.69901 1.09777 2.68 233 231 239
0.698187 1.08917 2.659 230 233 238
0.697555 1.08098 2.639 227 229 237
0.696853 1.07279 2.619 230 233 237
0.701438 1.07279 2.619 233 235 236
0.706022 1.07279 2.619 232 234 235
0.710607 1.07279 2.619 232 234 235
0.715191 1.07279 2.619 232 234 236
0.719776 1.07279 2.619 231 234 238
0.729892 1.08098 2.639 230 235 238
0.734512 1.08098 2.639 231 234 239
0.739131 1.08098 2.639 232 235 239
0.738114 1.07279 2.619 232 234 239
0.742699 1.07279 2.619 232 236 238
0.75299 1.08098 2.639 230 234 237
0.751868 1.07279 2.619 228 234 236
0.762229 1.08098 2.639 231 234 235
0.761037 1.07279 2.619 233 237 239
0.765621 1.07279 2.619 233 237 243
0.770206 1.07279 2.619 233 237 243
0.774791 1.07279 2.619 234 236 241
0.779375 1.07279 2.619 234 236 240
0.78396 1.07279 2.619 234 239 240
0.788544 1.07279 2.619 233 236 241
0.793129 1.07279 2.619 233 231 241
0.797713 1.07279 2.619 235 234 241
0.802298 1.07279 2.619 237 242 240
0.806883 1.07279 2.619 237 238 239
0.811467 1.07279 2.619 236 238 240
0.816052 1.07279 2.619 235 238 241
0.820636 1.07279 2.619 234 239 241
0.825221 1.07279 2.619 235 238 241
0.829805 1.07279 2.619 235 238 241
0.83439 1.07279 2.619 236 238 241
0.832568 1.06459 2.599 237 238 242
0.837117 1.06459 2.599 237 239 241
0.848144 1.07279 2.619 238 239 241
0.846216 1.06459 2.599 240 241 242
0.857313 1.07279 2.619 239 240 243
0.855315 1.06459 2.599 238 240 243
0.866482 1.07279 2.619 237 240 244
0.864414 1.06459 2.599 237 240 242
0.875651 1.07279 2.619 238 239 241
0.873514 1.06459 2.599 239 240 242
0.878063 1.06459 2.599 239 240 243
0.882613 1.06459 2.599 239 240 243
0.887162 1.06459 2.599 240 242 242
0.891712 1.06459 2.599 238 239 242
0.896261 1.06459 2.599 236 239 243
0.900811 1.06459 2.599 238 241 244
0.90536 1.06459 2.599 241 242 244
0.90991 1.06459 2.599 240 244 244
0.914459 1.06459 2.599 240 240 243
0.919009 1.06459 2.599 240 240 243
0.923559 1.06459 2.599 240 240 243
0.928108 1.06459 2.599 240 240 244
0.925839 1.05681 2.58 240 241 244
0.930356 1.05681 2.58 241 243 245
0.941757 1.06459 2.599 242 242 244
0.946306 1.06459 2.599 242 242 244
0.950856 1.06459 2.599 241 244 244
0.955405 1.06459 2.599 240 242 244
0.959955 1.06459 2.599 240 241 244
0.964505 1.06459 2.599 241 244 245
0.969054 1.06459 2.599 243 248 247
0.973604 1.06459 2.599 246 246 247
0.978153 1.06459 2.599 245 245 247
0.982703 1.06459 2.599 244 244 245
0.987252 1.06459 2.599 242 243 243
0.991802 1.06459 2.599 241 243 244
0.989067 1.05681 2.58 241 245 246
0.993584 1.05681 2.58 241 242 245
0.9981 1.05681 2.58 243 244 244
1.00262 1.05681 2.58 243 244 244
1.00713 1.05681 2.58 246 243 244
1.01165 1.05681 2.58 244 243 245
1.01617 1.05681 2.58 242 244 246
1.01277 1.04862 2.56 243 245 247
1.01725 1.04862 2.56 244 245 246
1.02173 1.04862 2.56 244 246 246
1.02621 1.04862 2.56 245 245 246
1.03069 1.04862 2.56 245 246 246
1.03518 1.04862 2.56 245 245 246
1.03966 1.04862 2.56 245 246 247
1.04414 1.04862 2.56 245 246 247
1.05681 1.05681 2.58 243 246 248
1.0531 1.04862 2.56 242 243 246
1.05758 1.04862 2.56 242 243 246
1.06206 1.04862 2.56 242 240 244
1.06654 1.04862 2.56 243 243 245
1.0635 1.04125 2.542 243 244 246
1.06795 1.04125 2.542 243 244 246
1.07239 1.04125 2.542 242 243 245
1.07684 1.04125 2.542 241 243 246
1.08895 1.04862 2.56 242 244 246
1.09343 1.04862 2.56 243 244 246
1.09791 1.04862 2.56 243 244 245
1.10239 1.04862 2.56 243 243 244
1.10688 1.04862 2.56 242 243 244
1.10354 1.04125 2.542 242 242 244
1.10799 1.04125 2.542 244 242 244
1.11244 1.04125 2.542 247 242 244
1.11689 1.04125 2.542 247 242 244
1.12134 1.04125 2.542 244 244 245
1.11738 1.03346 2.523 241 243 244
1.13024 1.04125 2.542 243 244 244
1.13469 1.04125 2.542 245 244 245
1.13914 1.04125 2.542 244 245 246
1.14359 1.04125 2.542 244 244 245
1.14804 1.04125 2.542 243 244 244
1.15249 1.04125 2.542 243 244 244
1.15694 1.04125 2.542 243 244 245
1.16961 1.04862 2.56 243 244 246
1.16584 1.04125 2.542 244 244 246
1.17029 1.04125 2.542 245 244 246
1.17474 1.04125 2.542 243 243 247
1.17038 1.03346 2.523 243 243 246
1.17479 1.03346 2.523 243 243 246
1.17921 1.03346 2.523 243 243 246
1.18363 1.03346 2.523 243 245 246
1.18804 1.03346 2.523 243 244 246
1.19246 1.03346 2.523 244 244 245
1.19687 1.03346 2.523 243 243 245
1.20129 1.03346 2.523 243 242 245
1.20571 1.03346 2.523 243 243 245
1.21012 1.03346 2.523 244 244 245
1.21454 1.03346 2.523 243 243 246
1.21896 1.03346 2.523 242 243 246
1.22337 1.03346 2.523 243 243 246
1.22779 1.03346 2.523 245 244 246
1.23221 1.03346 2.523 245 245 246
1.23662 1.03346 2.523 245 246 247
1.24104 1.03346 2.523 243 244 248
1.24546 1.03346 2.523 242 244 246
1.24096 1.02609 2.505 242 244 246
1.24534 1.02609 2.505 242 243 245
1.24075 1.01872 2.487 243 242 244
1.2451 1.01872 2.487 242 242 244
1.24945 1.01872 2.487 242 242 244
1.24473 1.01134 2.469 242 242 244
1.24905 1.01134 2.469 243 242 244
1.25338 1.01134 2.469 242 242 245
1.2577 1.01134 2.469 241 242 245
1.26202 1.01134 2.469 242 242 245
1.26634 1.01134 2.469 243 243 245
1.27066 1.01134 2.469 244 243 246
1.27499 1.01134 2.469 245 244 246
1.27931 1.01134 2.469 242 243 246
1.27427 1.00397 2.451 240 243 246
1.27856 1.00397 2.451 241 243 246
1.29227 1.01134 2.469 243 243 245
1.28714 1.00397 2.451 243 243 245
1.29143 1.00397 2.451 243 243 245
1.28674 0.997008 2.434 244 243 245
1.28198 0.990044 2.417 244 242 245
1.28621 0.990044 2.417 243 243 246
1.29044 0.990044 2.417 244 244 247
1.277 0.976527 2.384 246 245 246
1.28117 0.976527 2.384 245 244 246
1.28534 0.976527 2.384 244 244 245
1.28952 0.976527 2.384 244 243 245
1.29369 0.976527 2.384 244 243 245
1.29786 0.976527 2.384 243 243 245
1.29275 0.969563 2.367 242 243 244
1.30621 0.976527 2.384 242 242 244
1.31038 0.976527 2.384 242 241 245
1.31456 0.976527 2.384 242 242 246
1.30933 0.969563 2.367 243 246 245
1.30459 0.96301 2.351 242 242 245
1.30871 0.96301 2.351 243 244 244
1.30389 0.956456 2.335 242 241 244
-0.783188 0.584881 1.434 216 217 213
-0.780677 0.584881 1.434 215 217 215
-0.778167 0.584881 1.434 215 216 216
-0.775657 0.584881 1.434 216 217 216
-0.773147 0.584881 1.434 216 217 216
-0.767412 0.582433 1.428 217 217 216
-0.764912 0.582433 1.428 218 217 215
-0.765616 0.584881 1.434 218 219 215
-0.763106 0.584881 1.434 219 219 215
-0.760596 0.584881 1.434 215 219 215
-0.761257 0.587328 1.44 211 217 215
-0.761898 0.589775 1.446 213 219 215
-0.759367 0.589775 1.446 216 218 213
-0.759976 0.592222 1.452 215 218 212
-0.757434 0.592222 1.452 215 214 211
-0.754893 0.592222 1.452 214 214 210
-0.752351 0.592222 1.452 214 213 209
-0.752908 0.594669 1.458 217 214 208
-0.750355 0.594669 1.458 220 218 210
-0.747803 0.594669 1.458 218 221 213
-0.748318 0.597117 1.464 216 219 214
-0.745755 0.597117 1.464 215 219 215
-0.746238 0.599564 1.47 215 218 215
-0.743665 0.599564 1.47 215 218 215
-0.744621 0.602419 1.477 216 217 213
-0.742035 0.602419 1.477 216 216 212
-0.73945 0.602419 1.477 216 217 213
-0.739858 0.604866 1.483 216 217 213
-0.737262 0.604866 1.483 216 218 214
-0.737638 0.607313 1.489 216 218 215
-0.735031 0.607313 1.489 216 219 216
-0.735868 0.610168 1.496 216 219 216
-0.733249 0.610168 1.496 214 219 216
-0.730631 0.610168 1.496 212 217 217
-0.730932 0.612615 1.502 217 219 218
-0.731697 0.615471 1.509 223 221 217
-0.729055 0.615471 1.509 220 224 217
-0.729302 0.617918 1.515 218 220 218
-0.72665 0.617918 1.515 216 219 220
-0.727343 0.620773 1.522 214 218 218
-0.724679 0.620773 1.522 216 219 217
-0.725335 0.623628 1.529 218 221 217
-0.722659 0.623628 1.529 218 226 217
-0.719982 0.623628 1.529 218 221 215
-0.717306 0.623628 1.529 218 218 212
-0.717901 0.626483 1.536 219 219 214
-0.718006 0.62893 1.542 219 221 216
-0.715307 0.62893 1.542 219 221 216
-0.715842 0.631785 1.549 220 219 216
-0.713131 0.631785 1.549 219 218 215
-0.71363 0.63464 1.556 219 219 216
-0.710906 0.63464 1.556 219 220 218
-0.708182 0.63464 1.556 219 219 218
-0.705459 0.63464 1.556 218 219 218
-0.705896 0.637495 1.563 216 216 215
-0.70316 0.637495 1.563 216 217 218
-0.704009 0.640758 1.571 217 217 220
-0.701259 0.640758 1.571 217 218 222
-0.701621 0.643613 1.578 217 220 215
-0.701959 0.646468 1.585 217 217 208
-0.699185 0.646468 1.585 217 217 211
-0.69641 0.646468 1.585 217 217 215
-0.696699 0.649323 1.592 218 215 215
-0.693912 0.649323 1.592 218 215 215
-0.694598 0.652586 1.6 218 217 216
-0.691798 0.652586 1.6 217 216 218
-0.688997 0.652586 1.6 217 216 218
-0.692629 0.658704 1.615 217 216 220
-0.689802 0.658704 1.615 217 217 223
-0.689953 0.661559 1.622 218 218 219
-0.687113 0.661559 1.622 218 218 216
-0.687649 0.664822 1.63 218 222 215
-0.684796 0.664822 1.63 205 212 215
-0.681942 0.664822 1.63 192 176 201
-0.682422 0.668085 1.638 187 184 187
-0.685778 0.674203 1.653 183 191 187
-0.682884 0.674203 1.653 181 184 187
-0.683281 0.677466 1.661 180 181 182
-0.680374 0.677466 1.661 192 186 177
-0.680729 0.680729 1.669 204 199 187
-0.677808 0.680729 1.669 204 200 197
-0.678121 0.683992 1.677 205 201 197
-0.678809 0.687663 1.686 204 200 197
-0.675858 0.687663 1.686 204 200 197
-0.679292 0.694189 1.702 203 202 198
-0.679889 0.69786 1.711 204 203 200
-0.680059 0.701123 1.719 205 205 200
-0.67705 0.701123 1.719 204 204 201
-0.67757 0.704793 1.728 203 205 202
-0.674545 0.704793 1.728 204 205 203
-0.678126 0.711727 1.745 206 208 206
-0.675072 0.711727 1.745 255 0 0
-0.672017 0.711727 1.745 255 0 0
-0.672413 0.715398 1.754 255 0 0
-0.669342 0.715398 1.754 204 205 204
-0.666272 0.715398 1.754 204 204 207
-0.666604 0.719069 1.763 204 204 205
-0.663518 0.719069 1.763 205 203 203
-0.663804 0.722739 1.772 207 204 202
-0.660702 0.722739 1.772 207 204 202
-0.6576 0.722739 1.772 255 0 0
-0.657822 0.72641 1.781 255 0 0
-0.658013 0.730081 1.79 255 0 0
-0.658538 0.73416 1.8 255 0 0
-0.658664 0.737831 1.809 255 0 0
-0.655497 0.737831 1.809 205 203 199
-0.655937 0.741909 1.819 202 204 198
-0.652753 0.741909 1.819 200 204 199
-0.652782 0.74558 1.828 201 204 200
-0.649583 0.74558 1.828 255 0 0
-0.649919 0.749659 1.838 255 0 0
-0.65022 0.753737 1.848 255 0 0
-0.646985 0.753737 1.848 205 205 203
-0.647233 0.757816 1.858 206 208 202
-0.643981 0.757816 1.858 204 206 201
-0.640729 0.757816 1.858 204 206 201
-0.637476 0.757816 1.858 202 207 199
-0.637637 0.761895 1.868 204 206 197
-0.634367 0.761895 1.868 206 208 200
-0.634476 0.765973 1.878 204 208 203
-0.631188 0.765973 1.878 202 209 204
-0.624557 0.761895 1.868 204 208 205
-0.624613 0.765973 1.878 206 208 205
-0.624634 0.770052 1.888 206 208 203
-0.621329 0.770052 1.888 206 207 203
-0.621625 0.774539 1.899 205 207 202
-0.618301 0.774539 1.899 204 208 201
-0.614977 0.774539 1.899 204 210 201
-0.614874 0.778617 1.909 205 206 202
-0.615056 0.783104 1.92 204 204 204
-0.611695 0.783104 1.92 204 204 204
-0.611819 0.78759 1.931 203 207 207
-0.61159 0.791669 1.941 203 209 210
-0.608192 0.791669 1.941 204 207 204
-0.604794 0.791669 1.941 205 206 198
-0.604805 0.796155 1.952 206 206 200
-0.601388 0.796155 1.952 205 206 201
-0.597971 0.796155 1.952 205 206 202
-0.594554 0.796155 1.952 203 206 202
-0.594771 0.80105 1.964 201 206 203
-0.594645 0.805536 1.975 202 206 204
-0.59448 0.810023 1.986 204 206 202
-0.591004 0.810023 1.986 204 207 201
-0.591077 0.814917 1.998 204 207 201
-0.58758 0.814917 1.998 204 207 202
-0.587298 0.819404 2.009 204 207 202
-0.583781 0.819404 2.009 205 206 202
-0.58373 0.824298 2.021 204 206 202
-0.583638 0.829193 2.033 204 206 201
-0.580079 0.829193 2.033 203 208 200
-0.579923 0.834087 2.045 202 208 201
-0.576343 0.834087 2.045 255 0 0
-0.572764 0.834087 2.045 255 0 0
-0.572524 0.838981 2.057 255 0 0
-0.572242 0.843876 2.069 204 207 205
-0.56862 0.843876 2.069 201 211 203
-0.564998 0.843876 2.069 199 206 203
-0.564904 0.849178 2.082 201 203 204
-0.561259 0.849178 2.082 203 205 204
-0.557615 0.849178 2.082 203 205 204
-0.55397 0.849178 2.082 203 205 205
-0.550326 0.849178 2.082 203 205 204
-0.546681 0.849178 2.082 204 214 204
-0.543037 0.849178 2.082 205 206 203
-0.545869 0.859375 2.107 204 203 202
-0.545526 0.864677 2.12 204 203 203
-0.541815 0.864677 2.12 204 206 204
-0.538104 0.864677 2.12 204 204 203
-0.53767 0.869979 2.133 204 205 203
-0.53744 0.875689 2.147 204 206 204
-0.533682 0.875689 2.147 203 207 206
-0.529924 0.875689 2.147 203 204 204
-0.526165 0.875689 2.147 202 203 203
-0.52557 0.880992 2.16 202 203 203
-0.521789 0.880992 2.16 202 203 204
-0.521365 0.886702 2.174 202 204 205
-0.514227 0.880992 2.16 202 203 203
-0.513754 0.886702 2.174 202 203 201
-0.509949 0.886702 2.174 203 201 202
-0.506143 0.886702 2.174 202 202 203
-0.505341 0.892004 2.187 201 202 202
-0.504723 0.897714 2.201 204 203 202
-0.50747 0.909542 2.23 208 204 201
-0.503566 0.909542 2.23 205 203 200
-0.499663 0.909542 2.23 202 203 200
-0.498872 0.915252 2.244 201 203 200
-0.494943 0.915252 2.244 201 203 200
-0.491015 0.915252 2.244 201 203 202
-0.487087 0.915252 2.244 201 203 204
-0.483159 0.915252 2.244 201 203 203
-0.482434 0.921371 2.259 201 202 203
-0.481657 0.927488 2.274 201 202 201
-0.477676 0.927488 2.274 201 201 199
-0.473696 0.927488 2.274 202 201 201
-0.472814 0.933606 2.289 201 201 203
-0.465735 0.927488 2.274 201 202 202
-0.4648 0.933606 2.289 198 203 201
-0.463812 0.939724 2.304 196 200 201
-0.459779 0.939724 2.304 198 201 202
-0.455746 0.939724 2.304 198 201 202
-0.45485 0.94625 2.32 201 203 200
-0.456812 0.958894 2.351 200 204 198
-0.452697 0.958894 2.351 199 201 198
-0.451634 0.96542 2.367 195 201 198
-0.447491 0.96542 2.367 192 201 197
-0.443347 0.96542 2.367 195 202 196
-0.442358 0.972354 2.384 199 200 196
-0.438185 0.972354 2.384 199 199 197
-0.434012 0.972354 2.384 199 199 196
-0.429839 0.972354 2.384 197 198 196
-0.428522 0.97888 2.4 195 199 196
-0.424321 0.97888 2.4 197 199 196
-0.423096 0.985813 2.417 197 199 196
-0.421811 0.992747 2.434 199 199 196
-0.41755 0.992747 2.434 198 199 196
-0.416176 0.999681 2.451 197 199 197
-0.414911 1.00702 2.469 196 197 199
-0.410589 1.00702 2.469 196 197 201
-0.406267 1.00702 2.469 194 199 203
-0.404875 1.01436 2.487 193 197 200
-0.400521 1.01436 2.487 194 196 197
-0.396168 1.01436 2.487 196 197 194
-0.39465 1.02171 2.505 196 199 192
-0.390265 1.02171 2.505 197 199 194
-0.388653 1.02905 2.523 196 200 197
-0.384237 1.02905 2.523 196 200 197
-0.37982 1.02905 2.523 195 198 195
-0.380909 1.04414 2.56 196 202 194
-0.376428 1.04414 2.56 198 198 193
-0.374852 1.0523 2.58 197 196 193
-0.370336 1.0523 2.58 196 197 194
-0.368514 1.06005 2.599 195 198 196
-0.363964 1.06005 2.599 195 197 194
-0.36218 1.0682 2.619 195 196 193
-0.360326 1.07636 2.639 196 196 194
-0.355707 1.07636 2.639 198 194 195
-0.351087 1.07636 2.639 200 195 192
-0.349093 1.08452 2.659 200 195 192
-0.344439 1.08452 2.659 195 196 188
-0.342468 1.09308 2.68 192 195 190
-0.337777 1.09308 2.68 193 195 193
-0.335695 1.10165 2.701 194 195 193
-0.330967 1.10165 2.701 193 195 194
-0.328775 1.11021 2.722 192 195 189
-0.324011 1.11021 2.722 193 194 185
-0.319246 1.11021 2.722 194 196 187
-0.314481 1.11021 2.722 194 194 189
-0.309716 1.11021 2.722 193 194 189
-0.307304 1.11878 2.743 193 193 189
-0.302502 1.11878 2.743 192 192 189
-0.302584 1.13713 2.788 192 192 189
-0.297704 1.13713 2.788 192 192 189
-0.295134 1.1461 2.81 191 192 188
-0.290215 1.1461 2.81 191 193 188
-0.287733 1.15589 2.834 190 195 184
-0.282772 1.15589 2.834 190 193 181
-0.277811 1.15589 2.834 190 191 185
-0.275065 1.16527 2.857 189 193 189
-0.272332 1.17506 2.881 189 192 188
-0.269516 1.18485 2.905 189 192 187
-0.264431 1.18485 2.905 189 190 187
-0.259345 1.18485 2.905 189 191 188
-0.256448 1.19505 2.93 189 191 188
-0.251319 1.19505 2.93 190 194 187
-0.24619 1.19505 2.93 189 193 187
-0.241061 1.19505 2.93 189 192 185
-0.235932 1.19505 2.93 188 192 183
-0.230803 1.19505 2.93 187 193 184
-0.225674 1.19505 2.93 188 191 186
-0.220546 1.19505 2.93 188 188 187
-0.213579 1.18485 2.905 189 190 189
-0.210288 1.19505 2.93 190 191 188
-0.205159 1.19505 2.93 190 191 187
-0.20003 1.19505 2.93 189 191 182
-0.194901 1.19505 2.93 189 191 182
-0.189772 1.19505 2.93 191 192 178
-0.184643 1.19505 2.93 192 192 183
-0.179514 1.19505 2.93 191 194 189
-0.174385 1.19505 2.93 190 196 191
-0.169256 1.19505 2.93 191 194 193
-0.164127 1.19505 2.93 192 194 192
-0.158998 1.19505 2.93 193 194 192
-0.152556 1.18485 2.905 195 196 193
-0.147471 1.18485 2.905 192 197 194
-0.143611 1.19505 2.93 190 196 194
-0.138482 1.19505 2.93 192 196 194
-0.133353 1.19505 2.93 192 196 194
-0.128224 1.19505 2.93 194 194 195
-0.123095 1.19505 2.93 196 195 196
-0.117966 1.19505 2.93 198 195 196
-0.112837 1.19505 2.93 196 195 196
-0.107708 1.19505 2.93 194 195 195
-0.102579 1.19505 2.93 193 196 194
-0.0966188 1.18485 2.905 193 197 191
-0.0915336 1.18485 2.905 194 197 189
-0.0864484 1.18485 2.905 195 198 191
-0.0813632 1.18485 2.905 195 197 194
-0.076278 1.18485 2.905 195 197 196
-0.0711928 1.18485 2.905 195 197 196
-0.0661076 1.18485 2.905 196 197 198
-0.0610224 1.18485 2.905 197 197 201
-0.0559372 1.18485 2.905 197 198 204
-0.050852 1.18485 2.905 196 200 202
-0.0457668 1.18485 2.905 195 199 200
-0.0406816 1.18485 2.905 193 198 193
-0.0355964 1.18485 2.905 195 199 186
-0.0305112 1.18485 2.905 197 202 192
-0.025426 1.18485 2.905 198 200 198
-0.0203408 1.18485 2.905 199 198 198
-0.0152556 1.18485 2.905 198 199 199
-0.0101704 1.18485 2.905 198 199 199
-0.00504319 1.17506 2.881 197 200 201
0 1.16527 2.857 197 199 203
0.00504319 1.17506 2.881 198 200 202
0.0100024 1.16527 2.857 198 200 202
0.0150035 1.16527 2.857 198 200 200
0.0200047 1.16527 2.857 199 201 199
0.0250059 1.16527 2.857 199 204 199
0.0300071 1.16527 2.857 200 204 199
0.0350083 1.16527 2.857 202 203 200
0.0396873 1.15589 2.834 199 203 201
0.0446483 1.15589 2.834 197 203 200
0.0496092 1.15589 2.834 197 203 200
0.0545701 1.15589 2.834 198 203 199
0.059531 1.15589 2.834 199 205 205
0.0650153 1.16527 2.857 198 206 211
0.0700165 1.16527 2.857 198 207 208
0.0744138 1.15589 2.834 199 206 205
0.0793747 1.15589 2.834 201 206 203
0.0843356 1.15589 2.834 200 206 202
