-0.130631 0.0766369 0.995 255 0 0
-0.119939 0.0747446 0.993 255 0 0
-0.0644447 0.0748951 0.995 255 0 0
-0.0527251 0.0755726 1.004 255 0 0
-0.144115 0.0738151 1.004 255 0 0
-0.109179 0.0727858 0.99 255 0 0
-0.074293 0.0708375 0.987 255 0 0
-0.0442001 0.0724882 1.01 255 0 0
-0.155644 0.0661934 1.022 255 0 0
-0.034091 0.0645934 1.025 255 0 0
-0.0912921 0.0516748 0.984 255 0 0
-0.130631 0.0505107 0.995 255 0 0
-0.124037 0.050663 0.998 255 0 0
-0.064639 0.047169 0.998 255 0 0
-0.0544826 0.0474526 1.004 255 0 0
-0.14018 0.0455585 1.001 255 0 0
-0.114955 0.0452854 0.995 255 0 0
-0.131419 0.0438063 1.001 255 0 0
-0.12441 0.0438063 1.001 255 0 0
-0 0 0 255 0 0
-0.0475943 0.0440688 1.007 255 0 0
-0 0 0 255 0 0
-0.0644447 0.0418019 0.995 255 0 0
-0.0544826 0.04218 1.004 255 0 0
-0.0907354 0.0393757 0.978 255 0 0
-0 0 0 255 0 0
-0.0919748 0.0306583 0.973 255 0 0
-0 0 0 0 128 0
-0.0912186 0.0185816 0.965 0 128 0
-0.0201605 0.0201605 1.047 0 128 0
-0 0 0 0 128 0
-0.104732 0.0101354 0.965 0 255 0
-0.105058 0.00847242 0.968 0 255 0
-0.0982801 0.00677794 0.968 0 255 0
-0.0864187 0.00677794 0.968 0 255 0
-0.0802989 0.00683395 0.976 0 255 0
-0.0916912 0.00509396 0.97 0 0 255
-0 -0 0 0 0 255
-0.0199102 -0.00181002 1.034 0 0 255
-0 -0 0 0 0 255
-0.107855 -0.00513597 0.978 0 0 255
-0.0956753 -0.00512546 0.976 0 0 255
-0.0941594 -0.00513597 0.978 0 0 255
-0.0809571 -0.00516748 0.984 0 0 255
-0.123664 -0.00870874 0.995 0 0 255
-0.123664 -0.0104505 0.995 0 0 255
-0.0677916 -0.0121677 0.993 0 0 255
-0.115407 -0.0137799 0.984 0 0 255
-0.112991 -0.0136959 0.978 0 0 128
-0.0956753 -0.0136679 0.976 0 0 128
-0.0939668 -0.0136679 0.976 0 0 128
-0.074293 -0.0138219 0.987 0 0 128
-0.132772 -0.019217 0.998 0 0 128
-0.0592194 -0.020901 0.995 0 0 128
-0.164589 -0.0232571 1.022 0 0 128
-0 -0 0 0 0 128
-0.116111 -0.0277279 0.99 0 0 128
-0.113684 -0.0275599 0.984 0 0 128
-0.116697 -0.0296097 0.995 0 0 128
-0.112991 -0.0291038 0.978 0 0 128
-0.125784 -0.031446 0.998 0 0 128
-0.0757897 -0.0310049 0.984 0 0 128
-0.074293 -0.0310994 0.987 0 0 128
-0.0675868 -0.0329269 0.99 0 0 128
-0.0990083 -0.0353601 1.01 0 0 128
-0.0969514 -0.0352551 1.007 0 0 128
-0.113488 -0.0407849 1.013 0 0 128
-0.082109 -0.040181 0.998 0 0 128
-0.0987142 -0.0423061 1.007 0 0 128
-0.0969514 -0.0423061 1.007 0 0 128
-0.165189 -0.0453817 1.037 0 0 128
-0.162902 -0.0452504 1.034 0 0 128
-0 -0 0 0 0 128
-0 -0 0 0 0 128
-0 -0 0 0 0 128
-0.136945 -0.0800329 1.016 0 0 128
-0.0583442 -0.0795602 1.01 0 0 128
-0.0565762 -0.0795602 1.01 0 0 128
-0.118439 -0.0888291 0.995 0 0 128
-0.076868 -0.090844 0.998 0 0 128
-0.0753468 -0.091117 1.001 0 0 128
-0.0987807 -0.0918487 0.99 0 0 128
