-0.0745188 0.061271 0.946 255 0 0
-0.0728628 0.061271 0.946 255 0 0
-0.0633261 0.0616596 0.952 255 0 0
-0.141204 0.0598041 0.949 255 0 0
-0.130545 0.059489 0.944 255 0 0
-0.128483 0.0592999 0.941 255 0 0
-0.0522034 0.0606233 0.962 255 0 0
-0.153316 0.0583267 0.952 255 0 0
-0.0856555 0.0576527 0.941 255 0 0
-0.1186 0.0560055 0.941 255 0 0
-0.0444207 0.0546716 0.976 255 0 0
-0.164365 0.052529 0.968 255 0 0
-0.0747551 0.0398694 0.949 255 0 0
-0.0730939 0.0398694 0.949 255 0 0
-0.0649926 0.0399954 0.952 255 0 0
-0.141204 0.0382082 0.949 255 0 0
-0.132478 0.0380874 0.946 255 0 0
-0.101911 0.0378055 0.939 255 0 0
-0.0569578 0.036855 0.957 255 0 0
-0.148316 0.034996 0.952 255 0 0
-0.123935 0.0347019 0.944 255 0 0
-0.0816573 0.034996 0.952 255 0 0
-0.071809 0.0333995 0.954 255 0 0
-0.0651291 0.0333995 0.954 255 0 0
-0 0 0 255 0 0
-0.170612 0.0320954 0.965 255 0 0
-0.141948 0.0317296 0.954 255 0 0
-0.133598 0.0317296 0.954 0 128 0
-0.101042 0.0277052 0.931 0 128 0
-0.100717 0.0259914 0.928 0 128 0
-0.1005 0.0162096 0.926 0 128 0
-0 0 0 0 255 0
-0.173972 0.0120574 0.984 0 255 0
-0.0994144 0.00481037 0.916 0 255 0
-0.0873027 -0.00164722 0.941 0 255 0
-0.110397 -0.00319991 0.914 0 255 0
-0.103997 -0.00479987 0.914 0 0 255
-0.0978109 -0.00481037 0.916 0 0 255
-0.0940159 -0.00486289 0.926 0 0 255
-0.0289603 -0.00724007 1.034 0 0 255
-0.167754 -0.00847242 0.968 0 0 255
-0.0289603 -0.00905009 1.034 0 0 255
-0.0871171 -0.0147935 0.939 0 0 255
-0.110821 -0.0162972 0.931 0 0 255
-0.0994126 -0.0162972 0.931 0 0 255
-0.0760137 -0.0181772 0.944 0 0 255
-0.123542 -0.0197666 0.941 0 0 255
-0.0994126 -0.0211863 0.931 0 0 255
-0.0840082 -0.0214139 0.941 0 0 128
-0.113712 -0.0227425 0.928 0 0 128
-0.066659 -0.0249971 0.952 0 0 128
-0.0324858 -0.0270715 1.031 0 0 128
-0.166403 -0.0271678 0.97 0 0 128
-0.13385 -0.0264396 0.944 0 0 128
-0.066449 -0.0265796 0.949 0 0 128
-0.0315405 -0.028036 1.001 0 0 128
-0.13385 -0.028092 0.944 0 0 128
-0.0816608 -0.0326643 0.933 0 0 128
-0.113712 -0.0341137 0.928 0 0 128
-0.122229 -0.0358537 0.931 0 0 128
-0.0972578 -0.0356612 0.926 0 0 128
-0.0741249 -0.0362389 0.941 0 0 128
-0.112088 -0.0422361 0.928 0 0 128
-0.0849273 -0.0424636 0.933 0 0 128
-0 -0 0 0 0 128
-0 -0 0 0 0 128
-0.161309 -0.0458456 0.97 0 0 128
-0.0977829 -0.0440023 0.931 0 0 128
-0 -0 0 0 0 128
-0 -0 0 0 0 128
-0.0977829 -0.045632 0.931 0 0 128
-0.146958 -0.0601192 0.954 0 0 128
-0 -0 0 0 0 128
-0.062113 -0.0721854 0.959 0 0 128
-0.132478 -0.0728628 0.946 0 0 128
-0.11408 -0.0782263 0.931 0 0 128
-0.0793187 -0.0793187 0.944 0 0 128
-0.0961532 -0.0798561 0.931 0 0 128
-0.0793187 -0.0809711 0.944 0 0 128
-0.0963598 -0.0816608 0.933 0 0 128
