-0.132898 0.0614653 0.949 255 0 0
-0.12063 0.0611415 0.944 255 0 0
-0.0681102 0.0614653 0.949 255 0 0
-0.0567792 0.0617892 0.954 255 0 0
-0.0551092 0.0617892 0.954 255 0 0
-0.143317 0.0599931 0.952 255 0 0
-0.0456093 0.0608124 0.965 255 0 0
-0.108485 0.0575302 0.939 255 0 0
-0.0790666 0.0576527 0.941 255 0 0
-0.154926 0.0522034 0.962 255 0 0
-0.0375867 0.0529631 0.976 255 0 0
-0.0359518 0.0530717 0.978 255 0 0
-0.0933927 0.0376848 0.936 255 0 0
-0.066659 0.0383289 0.952 255 0 0
-0.0567792 0.0384095 0.954 255 0 0
-0.133318 0.0366625 0.952 255 0 0
-0.123319 0.0366625 0.952 255 0 0
-0.139984 0.0333295 0.952 255 0 0
-0.114021 0.0330494 0.944 255 0 0
-0.075149 0.0333995 0.954 255 0 0
-0.073479 0.0333995 0.954 255 0 0
-0.0488355 0.0336796 0.962 255 0 0
-0.0651291 0.0317296 0.954 255 0 0
-0.134018 0.0301541 0.957 255 0 0
-0.123578 0.0300596 0.954 255 0 0
-0.0569578 0.0301541 0.957 255 0 0
-0.0930933 0.0277647 0.933 255 0 0
-0.0567792 0.0283896 0.954 0 128 0
-0.0928938 0.0260754 0.931 0 128 0
-0 0 0 0 128 0
-0.166917 0.0255485 0.973 0 128 0
-0.0923949 0.0178306 0.926 0 255 0
-0.165214 0.00851618 0.973 0 255 0
-0 0 0 0 255 0
-0.166063 0.00684796 0.978 0 255 0
-0.0916964 0.00643484 0.919 0 255 0
-0.102397 -0.00159996 0.914 0 0 255
-0.0807138 -0.00164722 0.941 0 0 255
-0.0959974 -0.00319991 0.914 0 0 255
-0.0913971 -0.00320692 0.916 0 0 255
-0.0844721 -0.00324893 0.928 0 0 255
-0 -0 0 0 0 255
-0.163007 -0.0135839 0.97 0 0 255
-0.102341 -0.0146202 0.928 0 0 255
-0.0925944 -0.0146202 0.928 0 0 255
-0.0805423 -0.0147935 0.939 0 0 255
-0.116331 -0.0180231 0.936 0 0 255
-0.0677514 -0.0181772 0.944 0 0 255
-0.105932 -0.0211863 0.931 0 0 128
-0.0925944 -0.021118 0.928 0 0 128
-0.0772548 -0.0213684 0.939 0 0 128
-0.125189 -0.0247083 0.941 0 0 128
-0.0599931 -0.0249971 0.952 0 0 128
-0.0599931 -0.0266636 0.952 0 0 128
-0 -0 0 0 0 128
-0.160976 -0.0321952 0.968 0 0 128
-0.108839 -0.0324893 0.928 0 0 128
-0.107215 -0.0324893 0.928 0 0 128
-0.0753695 -0.0327694 0.936 0 0 128
-0.09097 -0.0341137 0.928 0 0 128
-0.0893455 -0.0341137 0.928 0 0 128
-0.11571 -0.0358537 0.931 0 0 128
-0.0658888 -0.0362389 0.941 0 0 128
-0.0788985 -0.041093 0.939 0 0 128
-0.103966 -0.0422361 0.928 0 0 128
-0.0912641 -0.0440023 0.931 0 0 128
-0.0896344 -0.0440023 0.931 0 0 128
-0.154926 -0.0471515 0.962 0 0 128
-0.0912641 -0.045632 0.931 0 0 128
-0.0896344 -0.045632 0.931 0 0 128
-0 -0 0 0 0 128
-0.154926 -0.0488355 0.962 0 0 128
-0 -0 0 0 0 128
-0.141948 -0.0617892 0.954 0 0 128
-0.0570768 -0.0721854 0.959 0 0 128
-0.125854 -0.0728628 0.946 0 0 128
-0.109191 -0.0782263 0.931 0 0 128
-0.107561 -0.0782263 0.931 0 0 128
-0.0743612 -0.0793187 0.944 0 0 128
-0.0912641 -0.0798561 0.931 0 0 128
-0.0896344 -0.0798561 0.931 0 0 128
-0.0743612 -0.0809711 0.944 0 0 128
-0.0912641 -0.0814858 0.931 0 0 128
-0.0896344 -0.0814858 0.931 0 0 128
