-0.136676 0.077099 1.001 255 0 0
-0.125784 0.076868 0.998 255 0 0
-0.068133 0.076868 0.998 255 0 0
-0.0599336 0.0775612 1.007 255 0 0
-0.0583442 0.0777922 1.01 255 0 0
-0.15162 0.0767017 1.019 255 0 0
-0.0799593 0.0747446 0.993 255 0 0
-0.0480197 0.0764759 1.016 255 0 0
-0.114724 0.0730064 0.993 255 0 0
-0.159689 0.0699762 1.025 255 0 0
-0.159222 0.0679824 1.022 255 0 0
-0.0394738 0.068182 1.025 255 0 0
-0.0377898 0.0683815 1.028 255 0 0
-0.139258 0.0546454 1.007 255 0 0
-0.137495 0.0546454 1.007 255 0 0
-0.128298 0.0544826 1.004 255 0 0
-0.0967536 0.05356 0.987 255 0 0
-0.0950259 0.05356 0.987 255 0 0
-0.068133 0.054157 0.998 255 0 0
-0.0595765 0.0543198 1.001 255 0 0
-0.0579976 0.0544826 1.004 255 0 0
-0.148512 0.0512721 1.01 255 0 0
-0.121268 0.0492101 1.004 255 0 0
-0.12163 0.0475943 1.007 255 0 0
-0.0753468 0.0473108 1.001 255 0 0
-0.0495041 0.0477361 1.01 255 0 0
-0.14102 0.0458316 1.007 255 0 0
-0.130832 0.0459681 1.01 0 128 0
-0.0667851 0.0456951 1.004 0 128 0
-0.0599336 0.0458316 1.007 0 128 0
-0.0967536 0.0431936 0.987 0 128 0
-0.0950259 0.0431936 0.987 0 255 0
-0.170635 0.0435664 1.037 0 255 0
-0 0 0 0 255 0
-0.0956753 0.0341698 0.976 0 255 0
-0.0941594 0.0342398 0.978 0 255 0
-0.0962863 0.02196 0.965 0 0 255
-0.170142 0.0217202 1.034 0 0 255
-0 0 0 0 0 255
-0.106422 0.0118246 0.965 0 0 255
-0.0999746 0.0118614 0.968 0 0 255
-0.0888414 0.0119594 0.976 0 0 255
-0.0829317 0.0120942 0.987 0 0 255
-0.0950872 0.0101879 0.97 0 0 255
-0.093678 0.0102194 0.973 0 0 255
-0.0953812 0.00851618 0.973 0 0 255
-0.0939668 0.00854244 0.976 0 0 255
-0 0 0 0 0 255
-0.16589 -0 1.019 0 0 128
-0.0958714 -0.00171199 0.978 0 0 128
-0.0941594 -0.00171199 0.978 0 0 128
-0.107855 -0.00342398 0.978 0 0 128
-0.0831838 -0.00346599 0.99 0 0 128
-0.121922 -0.00696699 0.995 0 0 128
-0.0714116 -0.00696699 0.995 0 0 128
-0.115759 -0.00863872 0.987 0 0 128
-0.114031 -0.00863872 0.987 0 0 128
-0.0956753 -0.00854244 0.976 0 0 128
-0.0941594 -0.00855995 0.978 0 0 128
-0.0714116 -0.00870874 0.995 0 0 128
-0.115759 -0.0103665 0.987 0 0 128
-0.113684 -0.010335 0.984 0 0 128
-0.0956753 -0.0102509 0.976 0 0 128
-0.0941594 -0.0102719 0.978 0 0 128
-0.0779848 -0.012131 0.99 0 0 128
-0.0764828 -0.0121677 0.993 0 0 128
-0.132772 -0.01747 0.998 0 0 128
-0.0613288 -0.0175225 1.001 0 0 128
-0 -0 0 0 0 128
-0.166866 -0.0215311 1.025 0 0 128
-0.117487 -0.0259162 0.987 0 0 128
-0.0760207 -0.0259162 0.987 0 0 128
-0.074293 -0.0259162 0.987 0 0 128
-0.123043 -0.0277279 0.99 0 0 128
-0.0760207 -0.0276439 0.987 0 0 128
-0.0745188 -0.0277279 0.99 0 0 128
-0.123043 -0.0294609 0.99 0 0 128
-0.0695299 -0.0295502 0.993 0 0 128
-0.0993024 -0.0319186 1.013 0 0 128
-0.0972403 -0.0318241 1.01 0 0 128
-0 -0 0 0 0 128
-0.166305 -0.0402055 1.044 0 0 128
-0.163847 -0.0400514 1.04 0 0 128
-0.11248 -0.038665 1.004 0 0 128
-0.0826026 -0.038665 1.004 0 0 128
-0.0987142 -0.0405433 1.007 0 0 128
-0.0969514 -0.0405433 1.007 0 0 128
-0.0448566 -0.0520336 1.025 0 0 128
-0 -0 0 0 0 128
-0.0616964 -0.0616964 1.007 0 0 128
-0.136136 -0.0636482 1.01 0 0 128
-0.118439 -0.0696699 0.995 0 0 128
-0.0799593 -0.0695299 0.993 0 0 128
-0.0999045 -0.0706222 0.984 0 0 128
