-0.12863 -0.212066 0.993 255 0 0
-0.142823 -0.214235 0.995 255 0 0
-0.0677916 -0.213804 0.993 255 0 0
-0.111962 -0.213589 0.984 255 0 0
-0.0537228 -0.214891 0.99 255 0 0
-0.154237 -0.216624 0.99 255 0 0
-0.0812039 -0.215968 0.987 255 0 0
-0.0434562 -0.217281 0.993 255 0 0
-0.166368 -0.223556 0.99 255 0 0
-0.0310049 -0.223924 0.984 255 0 0
-0.137379 -0.231827 0.981 255 0 0
-0.135662 -0.231827 0.981 255 0 0
-0.12472 -0.232354 0.976 255 0 0
-0.0944482 -0.233545 0.981 255 0 0
-0.0667676 -0.232831 0.978 255 0 0
-0.0547836 -0.232831 0.978 255 0 0
-0.146412 -0.237704 0.984 255 0 0
-0.136679 -0.23748 0.976 255 0 0
-0.134971 -0.23748 0.976 255 0 0
-0.12604 -0.23675 0.973 255 0 0
-0.117886 -0.23748 0.976 255 0 0
-0.116177 -0.23748 0.976 255 0 0
-0.073465 -0.23748 0.976 255 0 0
-0.0480827 -0.238696 0.981 255 0 0
-0.0649225 -0.239188 0.976 255 0 0
-0.0546716 -0.239188 0.976 255 0 0
-0.0649225 -0.240897 0.976 255 0 0
-0.0546716 -0.240897 0.976 0 128 0
-0.0119227 -0.240156 0.973 0 128 0
-0.180862 -0.246316 0.984 0 128 0
-0.179139 -0.246316 0.984 0 128 0
-0.0931966 -0.250784 0.968 0 255 0
-0.0135139 -0.260142 0.965 0 255 0
-0.17373 -0.269111 0.973 0 255 0
-0.17373 -0.270815 0.973 0 255 0
-0.0923301 -0.268597 0.959 0 255 0
-0.0151086 -0.282027 0.959 0 0 255
-0.0916562 -0.286634 0.952 0 0 255
-0.170324 -0.29466 0.973 0 0 255
-0.10889 -0.296515 0.957 0 0 255
-0.0764163 -0.294037 0.949 0 0 255
-0.0747551 -0.294037 0.949 0 0 255
-0.100199 -0.297256 0.954 0 0 255
-0.0833238 -0.296633 0.952 0 0 255
-0.0918487 -0.298926 0.954 0 0 255
-0.0199977 -0.303299 0.952 0 0 255
-0.166059 -0.316869 0.968 0 0 255
-0.106654 -0.314964 0.952 0 0 255
-0.0916562 -0.314964 0.952 0 0 128
-0.0793187 -0.312317 0.944 0 0 128
-0.120869 -0.320637 0.959 0 0 128
-0.0660989 -0.315622 0.944 0 0 128
-0.109987 -0.32163 0.952 0 0 128
-0.0913673 -0.320616 0.949 0 0 128
-0.0757721 -0.317914 0.941 0 0 128
-0.0741249 -0.317914 0.941 0 0 128
-0.0756111 -0.318882 0.939 0 0 128
-0.0741249 -0.319561 0.941 0 0 128
-0.129667 -0.328376 0.962 0 0 128
-0.0576527 -0.322855 0.941 0 0 128
-0.0247871 -0.323885 0.944 0 0 128
-0.158648 -0.335665 0.954 0 0 128
-0.156978 -0.335665 0.954 0 0 128
-0.109641 -0.335567 0.949 0 0 128
-0.0720926 -0.330971 0.936 0 0 128
-0.121908 -0.339005 0.954 0 0 128
-0.0641051 -0.333675 0.939 0 0 128
-0.090886 -0.338757 0.944 0 0 128
-0.10798 -0.347196 0.949 0 0 128
-0.0737311 -0.344078 0.936 0 0 128
-0.0329444 -0.345916 0.941 0 0 128
-0.0905971 -0.349211 0.941 0 0 128
-0.146958 -0.357375 0.954 0 0 128
-0.0476679 -0.366549 0.939 0 0 128
-0.131237 -0.372114 0.949 0 0 128
-0.0651886 -0.378094 0.931 0 0 128
-0.111059 -0.380539 0.933 0 0 128
-0.0877211 -0.383373 0.928 0 0 128
