-0.136676 0.077099 1.001 255 0 0
-0.125784 0.076868 0.998 255 0 0
-0.066386 0.076868 0.998 255 0 0
-0.0546454 0.0775612 1.007 255 0 0
-0.15162 0.0767017 1.019 255 0 0
-0.114724 0.0747446 0.993 255 0 0
-0.0783786 0.0748951 0.995 255 0 0
-0.0766369 0.0748951 0.995 255 0 0
-0.0461047 0.0744768 1.013 255 0 0
-0.159222 0.0697714 1.022 255 0 0
-0.159222 0.0679824 1.022 255 0 0
-0.0358853 0.0663877 1.025 255 0 0
-0.139258 0.0546454 1.007 255 0 0
-0.137085 0.0544826 1.004 255 0 0
-0.127914 0.0543198 1.001 255 0 0
-0.0964596 0.0533973 0.984 255 0 0
-0.0947371 0.0533973 0.984 255 0 0
-0.0665855 0.0525675 1.001 255 0 0
-0.056072 0.0525675 1.001 255 0 0
-0.148512 0.0495041 1.01 255 0 0
-0.120543 0.048916 0.998 255 0 0
-0.148512 0.0477361 1.01 255 0 0
-0.120543 0.047169 0.998 255 0 0
-0.0753468 0.0473108 1.001 255 0 0
-0.139258 0.0458316 1.007 255 0 0
-0.137085 0.0456951 1.004 255 0 0
-0.128298 0.0456951 1.004 255 0 0
-0.0669846 0.0458316 1.007 0 128 0
-0.0495041 0.0459681 1.01 0 128 0
-0 0 0 0 128 0
-0.0581709 0.0440688 1.007 0 128 0
-0.0564081 0.0440688 1.007 0 255 0
-0 0 0 0 255 0
-0.0186603 0.0466508 1.066 0 255 0
-0.0964596 0.0413398 0.984 0 255 0
-0.0947371 0.0413398 0.984 0 255 0
-0.0970845 0.0323615 0.973 0 0 255
-0 0 0 0 0 255
-0 0 0 0 0 255
-0 0 0 0 0 255
-0.0962863 0.0202708 0.965 0 0 255
-0.108447 0.0118614 0.968 0 0 255
-0.101669 0.0101669 0.968 0 0 255
-0.0888414 0.0102509 0.976 0 0 255
-0.0838875 0.0102719 0.978 0 0 255
-0.101669 0.00847242 0.968 0 0 255
-0.0888414 0.00854244 0.976 0 0 255
-0.0838875 0.00855995 0.978 0 0 255
-0.0970845 0.00681295 0.973 0 0 128
-0 -0 0 0 0 128
-0 -0 0 0 0 128
-0.111621 -0.00343448 0.981 0 0 128
-0.0975834 -0.00342398 0.978 0 0 128
-0.0826796 -0.00344498 0.984 0 0 128
-0.125784 -0.006988 0.998 0 0 128
-0.0696699 -0.0104505 0.995 0 0 128
-0.119214 -0.0120942 0.987 0 0 128
-0.0975834 -0.0119839 0.978 0 0 128
-0.0777485 -0.0120942 0.987 0 0 128
-0.0762518 -0.012131 0.99 0 0 128
-0.138428 -0.0175225 1.001 0 0 128
-0.136266 -0.01747 0.998 0 0 128
-0.061145 -0.01747 0.998 0 0 128
-0 -0 0 0 0 128
-0.164589 -0.0232571 1.022 0 0 128
-0.127531 -0.027952 0.998 0 0 128
-0.119577 -0.0277279 0.99 0 0 128
-0.127914 -0.0297883 1.001 0 0 128
-0.120543 -0.029699 0.998 0 0 128
-0.0764828 -0.0295502 0.993 0 0 128
-0.0747446 -0.0295502 0.993 0 0 128
-0.0696699 -0.0313515 0.995 0 0 128
-0.100776 -0.0335921 1.01 0 0 128
-0.119864 -0.0393582 1.022 0 0 128
-0.117728 -0.0392427 1.019 0 0 128
-0.0846122 -0.0405433 1.007 0 0 128
-0.100477 -0.0423061 1.007 0 0 128
-0 -0 0 0 0 128
-0.166782 -0.0458193 1.047 0 0 128
-0.161484 -0.0448566 1.025 0 0 128
-0 -0 0 0 0 128
-0.0430623 -0.0627992 1.025 0 0 128
-0.140087 -0.0780233 1.013 0 0 128
-0.138314 -0.0780233 1.013 0 0 128
-0.0599336 -0.0775612 1.007 0 0 128
-0.120543 -0.089097 0.998 0 0 128
-0.078615 -0.089097 0.998 0 0 128
-0.100818 -0.0903888 0.993 0 0 128
