-0.168132 0.0256868 1.334 47 56 48
-0.165175 0.0255906 1.329 38 35 47
-0.162236 0.0254943 1.324 30 10 33
-0.158711 0.0253017 1.314 23 12 19
-0.156411 0.0253017 1.314 17 10 13
-0.154111 0.0253017 1.314 13 10 8
-0.15181 0.0253017 1.314 13 10 8
-0.148941 0.0252055 1.309 10 6 4
-0.14609 0.0251092 1.304 27 13 1
-0.143807 0.0251092 1.304 45 26 21
-0.141524 0.0251092 1.304 62 46 41
-0.139242 0.0251092 1.304 80 80 32
-0.130552 0.0239346 1.243 90 78 24
-0.128376 0.0239346 1.243 101 80 32
-0.127114 0.0241079 1.252 95 76 40
-0.124923 0.0241079 1.252 89 73 33
-0.122241 0.0240116 1.247 70 63 26
-0.119673 0.0239346 1.243 70 63 26
-0.117497 0.0239346 1.243 51 45 23
-0.107899 0.0223941 1.163 43 29 21
-0.105863 0.0223941 1.163 36 7 15
-0.103827 0.0223941 1.163 26 8 10
-0.101441 0.0223171 1.159 16 12 5
-0.0994126 0.0223171 1.159 12 8 1
-0.0973838 0.0223171 1.159 8 8 2
-0.095355 0.0223171 1.159 9 7 3
-0.0933262 0.0223171 1.159 10 9 2
-0.0909822 0.0222401 1.155 10 8 2
-0.0889604 0.0222401 1.155 10 8 2
-0.0869386 0.0222401 1.155 9 5 2
-0.0849168 0.0222401 1.155 9 6 3
-0.0828949 0.0222401 1.155 9 7 3
-0.0808731 0.0222401 1.155 12 10 3
-0.0788513 0.0222401 1.155 15 13 3
-0.0768294 0.0222401 1.155 16 11 3
-0.0748076 0.0222401 1.155 16 7 4
-0.0727858 0.0222401 1.155 13 8 5
-0.070764 0.0222401 1.155 10 7 4
-0.0687421 0.0222401 1.155 12 9 4
-0.0667203 0.0222401 1.155 13 9 4
-0.0649225 0.0223171 1.159 13 9 4
-0.0628937 0.0223171 1.159 12 8 4
-0.0608649 0.0223171 1.159 10 7 3
-0.0588361 0.0223171 1.159 14 7 3
-0.0568072 0.0223171 1.159 18 9 3
-0.0549675 0.0223941 1.163 13 7 4
-0.0529316 0.0223941 1.163 9 4 4
-0.0510708 0.0224712 1.167 21 2 4
-0.049028 0.0224712 1.167 34 1 5
-0.0449423 0.0224712 1.167 66 17 5
-0.0390081 0.0238383 1.238 99 66 25
-0.036841 0.0238383 1.238 104 81 34
-0.0346739 0.0238383 1.238 110 81 44
-0.0325068 0.0238383 1.238 116 81 48
-0.0303397 0.0238383 1.238 127 87 53
-0.0281725 0.0238383 1.238 138 92 60
-0.0261105 0.0239346 1.243 143 105 68
-0.0239346 0.0239346 1.243 149 119 70
-0.0217587 0.0239346 1.243 149 119 70
-0.0196459 0.0240116 1.247 151 121 73
-0.017533 0.0241079 1.252 154 127 76
-0.0153414 0.0241079 1.252 152 124 80
-0.0131498 0.0241079 1.252 150 124 78
-0.0109931 0.0241849 1.256 146 117 76
-0.00879451 0.0241849 1.256 142 102 82
-0.00662214 0.0242812 1.261 142 90 88
-0.00442877 0.0243582 1.265 142 73 54
-0.00222313 0.0244545 1.27 111 52 20
0 0.0245508 1.275 79 1 27
0.00224064 0.024647 1.28 79 1 27
0.00448128 0.024647 1.28 53 17 35
0.00669566 0.0245508 1.275 27 39 34
0.00896256 0.024647 1.28 33 42 34
0.0111594 0.0245508 1.275 40 44 37
0.0133913 0.0245508 1.275 41 43 41
-0.744453 0.0310189 1.772 194 191 187
-0.745116 0.0311764 1.781 194 191 189
-0.745748 0.0313339 1.79 194 190 192
-0.742615 0.0313339 1.79 195 185 190
-0.743612 0.031509 1.8 193 184 189
-0.740462 0.031509 1.8 193 184 189
-0.737311 0.031509 1.8 191 186 187
-0.73416 0.031509 1.8 190 186 185
-0.734664 0.0316665 1.809 189 184 181
-0.731497 0.0316665 1.809 187 185 177
-0.732357 0.0318416 1.819 185 183 181
-0.73278 0.0319991 1.828 183 181 186
-0.72958 0.0319991 1.828 182 177 169
-0.730354 0.0321742 1.838 183 174 152
-0.731093 0.0323492 1.848 185 176 161
-0.727858 0.0323492 1.848 190 183 170
-0.724623 0.0323492 1.848 196 194 176
-0.725292 0.0325243 1.858 180 199 183
-0.722039 0.0325243 1.858 164 144 154
-0.718787 0.0325243 1.858 127 134 126
-0.715534 0.0325243 1.858 127 134 126
-0.716116 0.0326993 1.868 91 112 122
-0.712846 0.0326993 1.868 103 151 118
-0.709576 0.0326993 1.868 116 69 66
-0.706306 0.0326993 1.868 107 1 15
-0.703036 0.0326993 1.868 98 88 75
-0.707258 0.0330494 1.888 148 91 135
-0.708055 0.033242 1.899 199 183 164
-0.708441 0.033417 1.909 198 199 194
-0.7051 0.033417 1.909 198 193 189
-0.701758 0.033417 1.909 195 193 185
-0.702441 0.0336096 1.92 193 189 184
-0.703085 0.0338022 1.931 190 187 183
-0.699705 0.0338022 1.931 188 189 184
-0.696324 0.0338022 1.931 190 187 185
-0.692944 0.0338022 1.931 190 187 185
-0.693135 0.0339772 1.941 193 188 188
-0.689737 0.0339772 1.941 192 188 191
-0.690229 0.0341698 1.952 192 187 188
-0.682942 0.0339772 1.941 191 187 185
-0.683395 0.0341698 1.952 191 186 184
-0.684158 0.0343798 1.964 190 186 183
-0.684533 0.0345724 1.975 190 185 182
-0.681076 0.0345724 1.975 189 186 181
-0.677619 0.0345724 1.975 188 185 179
-0.674161 0.0345724 1.975 187 184 178
-0.67444 0.0347649 1.986 186 182 176
-0.670963 0.0347649 1.986 183 182 173
-0.667487 0.0347649 1.986 181 180 172
-0.66401 0.0347649 1.986 181 180 172
-0.664525 0.034975 1.998 179 180 172
-0.668637 0.0353776 2.021 178 178 177
-0.665099 0.0353776 2.021 175 175 182
-0.665489 0.0355877 2.033 172 173 175
-0.661931 0.0355877 2.033 169 173 169
-0.658372 0.0355877 2.033 167 172 166
-0.658678 0.0357977 2.045 164 170 164
-0.655098 0.0357977 2.045 161 165 163
-0.659165 0.0362178 2.069 155 162 162
-0.655543 0.0362178 2.069 150 158 156
-0.651921 0.0362178 2.069 144 152 150
-0.648299 0.0362178 2.069 139 145 146
-0.644678 0.0362178 2.069 132 142 142
-0.645084 0.0364454 2.082 132 142 142
-0.641439 0.0364454 2.082 125 127 131
-0.637795 0.0364454 2.082 118 124 120
-0.63811 0.036673 2.095 112 103 108
-0.638077 0.036883 2.107 106 94 96
-0.634388 0.036883 2.107 100 93 94
-0.634591 0.0371106 2.12 96 92 93
-0.63088 0.0371106 2.12 92 92 89
-0.631015 0.0373382 2.133 92 95 85
-0.631398 0.0375832 2.147 92 89 82
-0.63144 0.0378108 2.16 87 87 80
-0.631727 0.0380559 2.174 83 83 76
-0.627922 0.0380559 2.174 82 80 73
-0.624116 0.0380559 2.174 82 80 73
-0.62402 0.0382834 2.187 81 79 68
-0.620192 0.0382834 2.187 82 78 64
-0.616363 0.0382834 2.187 83 81 54
-0.616456 0.0385285 2.201 48 82 44
-0.6165 0.0387736 2.215 14 26 43
-0.612622 0.0387736 2.215 16 9 42
-0.608745 0.0387736 2.215 19 14 28
-0.608964 0.0390362 2.23 10 13 13
-0.60506 0.0390362 2.23 2 12 8
-0.608974 0.0395438 2.259 6 11 3
-0.256793 0.0239994 1.371 26 15 22
-0.255321 0.0240869 1.376 25 12 21
-0.252912 0.0240869 1.376 24 24 21
-0.250504 0.0240869 1.376 30 12 21
-0.216446 0.0235267 1.344 79 85 82
-0.213297 0.0234392 1.339 78 85 86
-0.210165 0.0233517 1.334 78 85 86
-0.20783 0.0233517 1.334 78 79 72
-0.204724 0.0232641 1.329 72 69 58
-0.202398 0.0232641 1.329 66 66 64
-0.200072 0.0232641 1.329 58 60 69
-0.197745 0.0232641 1.329 50 57 56
-0.195419 0.0232641 1.329 44 47 43
-0.193092 0.0232641 1.329 38 38 44
-0.191484 0.0233517 1.334 29 31 45
-0.189149 0.0233517 1.334 21 24 31
-0.186813 0.0233517 1.334 27 16 16
-0.18517 0.0234392 1.339 34 15 28
-0.182826 0.0234392 1.339 34 15 28
-0.180482 0.0234392 1.339 41 17 39
-0.178138 0.0234392 1.339 49 43 46
-0.175794 0.0234392 1.339 54 63 52
-0.17345 0.0234392 1.339 59 61 49
-0.169828 0.0232641 1.329 48 59 45
-0.167502 0.0232641 1.329 37 41 41
-0.163933 0.0230891 1.319 29 22 38
-0.161011 0.0230016 1.314 21 13 24
-0.158711 0.0230016 1.314 17 9 10
-0.155816 0.022914 1.309 14 10 8
-0.153524 0.022914 1.309 9 14 7
-0.150655 0.0228265 1.304 9 14 7
-0.148372 0.0228265 1.304 4 10 11
-0.14609 0.0228265 1.304 35 8 16
-0.143807 0.0228265 1.304 67 37 22
-0.141524 0.0228265 1.304 67 53 29
-0.139776 0.022914 1.309 67 62 32
-0.130552 0.0217587 1.243 88 71 35
-0.128376 0.0217587 1.243 110 79 44
-0.126607 0.0218287 1.247 101 78 53
-0.124424 0.0218287 1.247 92 76 42
-0.121849 0.0217587 1.243 88 77 32
-0.119673 0.0217587 1.243 88 77 32
-0.117497 0.0217587 1.243 84 62 25
-0.115321 0.0217587 1.243 67 55 19
-0.105863 0.0203583 1.163 51 28 20
-0.103827 0.0203583 1.163 38 12 21
-0.101441 0.0202883 1.159 25 11 13
-0.0994126 0.0202883 1.159 18 5 6
-0.0973838 0.0202883 1.159 12 7 4
-0.095355 0.0202883 1.159 10 7 3
-0.0933262 0.0202883 1.159 9 8 2
-0.0912973 0.0202883 1.159 8 10 2
-0.0892685 0.0202883 1.159 8 10 2
-0.0872397 0.0202883 1.159 7 7 2
-0.0852108 0.0202883 1.159 7 6 2
-0.083182 0.0202883 1.159 7 6 2
-0.0811532 0.0202883 1.159 10 10 3
-0.0791244 0.0202883 1.159 13 9 2
-0.0768294 0.0202183 1.155 12 9 2
-0.0748076 0.0202183 1.155 12 6 3
-0.0727858 0.0202183 1.155 7 7 4
-0.070764 0.0202183 1.155 3 6 3
-0.0689802 0.0202883 1.159 6 7 3
-0.0667203 0.0202183 1.155 9 6 3
-0.0649225 0.0202883 1.159 9 6 3
-0.0628937 0.0202883 1.159 6 3 3
-0.0608649 0.0202883 1.159 4 4 2
-0.0588361 0.0202883 1.159 12 4 2
-0.0570033 0.0203583 1.163 21 4 3
-0.0549675 0.0203583 1.163 17 4 4
-0.0529316 0.0203583 1.163 13 3 6
-0.0508958 0.0203583 1.163 26 1 8
-0.04886 0.0203583 1.163 39 15 7
-0.0468241 0.0203583 1.163 60 20 7
-0.0453625 0.0216012 1.234 81 45 6
-0.0411753 0.0216712 1.238 99 67 21
-0.0388821 0.0216012 1.234 105 65 35
-0.036841 0.0216712 1.238 111 80 40
-0.0346739 0.0216712 1.238 118 86 45
-0.0325068 0.0216712 1.238 125 87 52
-0.0304622 0.0217587 1.243 132 89 59
-0.0282863 0.0217587 1.243 140 101 63
-0.0261105 0.0217587 1.243 146 115 68
-0.0239346 0.0217587 1.243 152 118 72
-0.0217587 0.0217587 1.243 152 118 72
-0.0196459 0.0218287 1.247 153 121 75
-0.017463 0.0218287 1.247 154 124 82
-0.0152801 0.0218287 1.247 151 123 88
-0.0131498 0.0219163 1.252 149 123 80
-0.0109931 0.0219863 1.256 146 124 73
-0.00879451 0.0219863 1.256 144 102 74
-0.00662214 0.0220738 1.261 144 93 75
-0.00442877 0.0221438 1.265 144 67 53
-0.00222313 0.0222313 1.27 110 59 32
0 0.0223189 1.275 76 21 26
0.00223189 0.0223189 1.275 76 21 26
0.00448128 0.0224064 1.28 50 18 20
0.00669566 0.0223189 1.275 24 33 28
0.00892755 0.0223189 1.275 31 44 36
0.0111594 0.0223189 1.275 39 44 39
0.0133388 0.0222313 1.27 42 44 42
-0.744453 0.027917 1.772 194 188 187
-0.745116 0.0280588 1.781 192 187 187
-0.745748 0.0282006 1.79 193 187 187
-0.742615 0.0282006 1.79 193 186 188
-0.743612 0.0283581 1.8 192 186 189
-0.740462 0.0283581 1.8 192 186 189
-0.737311 0.0283581 1.8 191 189 188
-0.737831 0.0284999 1.809 190 185 188
-0.734664 0.0284999 1.809 188 183 185
-0.731497 0.0284999 1.809 186 183 183
-0.732357 0.0286574 1.819 185 182 182
-0.73278 0.0287992 1.828 181 180 182
-0.72958 0.0287992 1.828 177 177 166
-0.72638 0.0287992 1.828 181 175 150
-0.727137 0.0289568 1.838 186 177 161
-0.723919 0.0289568 1.838 191 182 173
-0.724623 0.0291143 1.848 197 194 180
-0.721388 0.0291143 1.848 187 189 187
-0.722039 0.0292719 1.858 178 177 165
-0.718787 0.0292719 1.858 113 122 143
-0.715534 0.0292719 1.858 113 122 143
-0.716116 0.0294294 1.868 48 13 126
-0.712846 0.0294294 1.868 93 95 110
-0.709576 0.0294294 1.868 138 123 70
-0.706306 0.0294294 1.868 97 77 30
-0.706799 0.029587 1.878 56 85 75
-0.707258 0.0297445 1.888 129 102 120
-0.708055 0.0299178 1.899 202 232 158
-0.708441 0.0300753 1.909 199 206 196
-0.7051 0.0300753 1.909 195 191 191
-0.701758 0.0300753 1.909 194 191 186
-0.702441 0.0302486 1.92 192 191 188
-0.703085 0.0304219 1.931 191 189 190
-0.699705 0.0304219 1.931 190 188 188
-0.696324 0.0304219 1.931 191 188 187
-0.696533 0.0305795 1.941 191 188 187
-0.693135 0.0305795 1.941 192 189 188
-0.689737 0.0305795 1.941 191 188 189
-0.690229 0.0307528 1.952 191 188 187
-0.686812 0.0307528 1.952 191 187 186
-0.683395 0.0307528 1.952 192 187 188
-0.684158 0.0309418 1.964 191 185 190
-0.684533 0.0311151 1.975 190 185 186
-0.681076 0.0311151 1.975 188 185 182
-0.677619 0.0311151 1.975 187 184 180
-0.674161 0.0311151 1.975 186 183 179
-0.67444 0.0312884 1.986 185 182 177
-0.670963 0.0312884 1.986 182 180 176
-0.667487 0.0312884 1.986 180 180 173
-0.668022 0.0314775 1.998 180 180 173
-0.672175 0.0318398 2.021 178 179 171
-0.668637 0.0318398 2.021 177 178 173
-0.669048 0.0320289 2.033 174 176 175
-0.665489 0.0320289 2.033 172 174 172
-0.661931 0.0320289 2.033 170 173 169
-0.658372 0.0320289 2.033 168 173 166
-0.658678 0.032218 2.045 165 169 163
-0.658942 0.032407 2.057 162 165 161
-0.655342 0.032407 2.057 156 163 159
-0.655543 0.0325961 2.069 151 162 156
-0.651921 0.0325961 2.069 146 153 153
-0.648299 0.0325961 2.069 142 146 150
-0.648728 0.0328009 2.082 133 138 148
-0.645084 0.0328009 2.082 133 138 148
-0.641439 0.0328009 2.082 123 124 130
-0.637795 0.0328009 2.082 118 116 113
-0.63811 0.0330057 2.095 114 94 108
-0.638077 0.0331947 2.107 107 94 103
-0.638302 0.0333995 2.12 101 94 98
-0.634591 0.0333995 2.12 95 92 93
-0.634749 0.0336043 2.133 89 93 88
-0.631015 0.0336043 2.133 89 91 84
-0.631398 0.0338249 2.147 90 88 81
-0.63144 0.0340297 2.16 86 86 78
-0.627659 0.0340297 2.16 83 85 73
-0.627922 0.0342503 2.174 81 82 68
-0.624116 0.0342503 2.174 81 82 68
-0.62402 0.0344551 2.187 80 81 66
-0.620192 0.0344551 2.187 81 80 64
-0.616363 0.0344551 2.187 82 83 54
-0.616456 0.0346757 2.201 48 63 45
-0.6165 0.0348962 2.215 14 5 43
-0.612622 0.0348962 2.215 16 10 41
-0.608745 0.0348962 2.215 19 18 25
-0.608964 0.0351325 2.23 11 15 10
-0.60506 0.0351325 2.23 3 14 7
-0.604931 0.0353531 2.244 6 10 4
-0.260138 0.0216782 1.376 56 20 14
-0.256793 0.0215994 1.371 67 12 13
-0.255321 0.0216782 1.376 66 42 13
-0.251993 0.0215994 1.371 66 50 14
-0.249593 0.0215994 1.371 72 64 15
-0.225333 0.0213473 1.355 82 83 75
-0.222138 0.0212686 1.35 86 86 75
-0.218799 0.021174 1.344 80 84 75
-0.215641 0.0210953 1.339 74 82 75
-0.213297 0.0210953 1.339 70 73 75
-0.210165 0.0210165 1.334 70 73 75
-0.20783 0.0210165 1.334 67 69 66
-0.204724 0.0209377 1.329 61 58 58
-0.202398 0.0209377 1.329 55 51 58
-0.200072 0.0209377 1.329 50 49 58
-0.197001 0.020859 1.324 46 45 48
-0.195419 0.0209377 1.329 40 41 38
-0.193092 0.0209377 1.329 34 34 36
-0.191484 0.0210165 1.334 22 28 34
-0.189149 0.0210165 1.334 11 17 22
-0.186813 0.0210165 1.334 24 10 10
-0.18517 0.0210953 1.339 38 8 25
-0.182826 0.0210953 1.339 38 8 25
-0.180482 0.0210953 1.339 43 32 41
-0.178138 0.0210953 1.339 49 61 53
-0.175794 0.0210953 1.339 49 60 65
-0.172802 0.0210165 1.334 49 58 53
-0.169189 0.020859 1.324 39 46 41
-0.166241 0.0207802 1.319 28 29 35
-0.163311 0.0207014 1.314 20 20 29
-0.161011 0.0207014 1.314 12 14 15
-0.158711 0.0207014 1.314 15 11 1
-0.155816 0.0206226 1.309 19 10 4
-0.152938 0.0205439 1.304 22 11 7
-0.150655 0.0205439 1.304 22 11 7
-0.148372 0.0205439 1.304 24 13 19
-0.14553 0.0204651 1.299 43 38 31
-0.143256 0.0204651 1.299 62 61 24
-0.140982 0.0204651 1.299 60 51 17
-0.138708 0.0204651 1.299 59 44 32
-0.130552 0.0195828 1.243 83 62 47
-0.128376 0.0195828 1.243 107 87 57
-0.127114 0.0197246 1.252 101 81 67
-0.124424 0.0196459 1.247 95 77 52
-0.121849 0.0195828 1.243 91 75 38
-0.119673 0.0195828 1.243 91 75 38
-0.117024 0.0195041 1.238 87 73 27
-0.114857 0.0195041 1.238 76 59 17
-0.11269 0.0195041 1.238 64 38 25
-0.103827 0.0183225 1.163 53 29 33
-0.101792 0.0183225 1.163 41 15 22
-0.0997557 0.0183225 1.163 34 15 11
-0.0977199 0.0183225 1.163 26 8 7
-0.0956841 0.0183225 1.163 21 7 3
-0.0933262 0.0182595 1.159 16 7 3
-0.0912973 0.0182595 1.159 12 6 3
-0.0892685 0.0182595 1.159 12 6 3
-0.0872397 0.0182595 1.159 9 7 2
-0.0852108 0.0182595 1.159 6 4 1
-0.083182 0.0182595 1.159 4 4 2
-0.0811532 0.0182595 1.159 9 5 3
-0.0791244 0.0182595 1.159 15 5 2
-0.0770955 0.0182595 1.159 14 5 1
-0.0750667 0.0182595 1.159 13 4 2
-0.0730379 0.0182595 1.159 11 5 3
-0.071009 0.0182595 1.159 8 6 2
-0.0689802 0.0182595 1.159 8 5 2
-0.0669514 0.0182595 1.159 7 5 2
-0.0649225 0.0182595 1.159 7 5 2
-0.0628937 0.0182595 1.159 7 4 3
-0.0610749 0.0183225 1.163 7 5 2
-0.0590391 0.0183225 1.163 17 3 1
-0.0570033 0.0183225 1.163 27 2 2
-0.0547784 0.0182595 1.159 36 7 4
-0.0527496 0.0182595 1.159 44 3 8
-0.0518428 0.0194411 1.234 67 41 10
-0.0475226 0.0194411 1.234 89 76 8
-0.0432023 0.0194411 1.234 97 71 9
-0.0411753 0.0195041 1.238 105 70 27
-0.0390081 0.0195041 1.238 111 75 46
-0.036841 0.0195041 1.238 117 88 46
-0.0346739 0.0195041 1.238 123 90 46
-0.0325068 0.0195041 1.238 129 93 55
-0.0303397 0.0195041 1.238 136 98 65
-0.0281725 0.0195041 1.238 143 111 67
-0.0261105 0.0195828 1.243 148 115 69
-0.0239346 0.0195828 1.243 152 120 73
-0.0217587 0.0195828 1.243 152 120 73
-0.0196459 0.0196459 1.247 153 121 78
-0.017533 0.0197246 1.252 153 125 87
-0.0152801 0.0196459 1.247 151 123 97
-0.0131498 0.0197246 1.252 149 123 83
-0.0109931 0.0197877 1.256 147 110 70
-0.00879451 0.0197877 1.256 145 92 66
-0.00662214 0.0198664 1.261 144 72 62
-0.00442877 0.0199294 1.265 143 45 53
-0.00222313 0.0200082 1.27 105 39 44
0 0.020087 1.275 66 7 25
0.00223189 0.020087 1.275 66 7 25
0.00446378 0.020087 1.275 51 19 6
0.00669566 0.020087 1.275 35 31 22
0.00892755 0.020087 1.275 37 40 39
0.0111157 0.0200082 1.27 38 45 41
0.0133388 0.0200082 1.27 39 44 44
-0.748234 0.0249411 1.781 195 188 187
-0.745116 0.0249411 1.781 191 188 187
-0.741998 0.0249411 1.781 191 187 187
-0.742615 0.0250672 1.79 192 187 188
-0.739481 0.0250672 1.79 192 188 190
-0.740462 0.0252072 1.8 192 188 190
-0.737311 0.0252072 1.8 192 186 188
-0.73416 0.0252072 1.8 190 185 186
-0.734664 0.0253332 1.809 188 182 183
-0.735541 0.0254733 1.819 186 182 181
-0.732357 0.0254733 1.819 185 183 178
-0.73278 0.0255993 1.828 178 183 175
-0.725988 0.0254733 1.819 172 178 164
-0.72638 0.0255993 1.828 179 173 153
-0.727137 0.0257394 1.838 187 179 166
-0.723919 0.0257394 1.838 192 177 178
-0.720702 0.0257394 1.838 198 186 184
-0.721388 0.0258794 1.848 195 186 189
-0.718153 0.0258794 1.848 193 182 176
-0.718787 0.0260194 1.858 99 166 162
-0.715534 0.0260194 1.858 99 166 162
-0.716116 0.0261595 1.868 6 68 130
-0.712846 0.0261595 1.868 83 95 97
-0.709576 0.0261595 1.868 160 125 88
-0.710087 0.0262995 1.878 87 100 79
-0.706799 0.0262995 1.878 14 46 93
-0.707258 0.0264396 1.888 110 1 106
-0.703953 0.0264396 1.888 206 171 152
-0.70473 0.0265936 1.899 199 204 198
-0.701406 0.0265936 1.899 193 193 191
-0.701758 0.0267336 1.909 192 191 185
-0.702441 0.0268877 1.92 192 189 188
-0.703085 0.0270417 1.931 192 190 192
-0.699705 0.0270417 1.931 192 191 189
-0.696324 0.0270417 1.931 192 189 187
-0.696533 0.0271818 1.941 192 189 187
-0.693135 0.0271818 1.941 192 188 187
-0.693646 0.0273358 1.952 191 189 187
-0.690229 0.0273358 1.952 190 188 187
-0.686812 0.0273358 1.952 191 189 186
-0.687596 0.0275039 1.964 193 187 187
-0.684158 0.0275039 1.964 191 185 188
-0.684533 0.0276579 1.975 190 186 185
-0.681076 0.0276579 1.975 188 187 183
-0.677619 0.0276579 1.975 187 183 182
-0.674161 0.0276579 1.975 185 182 180
-0.67444 0.0278119 1.986 184 180 178
-0.670963 0.0278119 1.986 181 179 176
-0.67152 0.02798 1.998 179 179 173
-0.668022 0.02798 1.998 179 179 173
-0.668183 0.028134 2.009 178 179 171
-0.668637 0.0283021 2.021 177 178 172
-0.669048 0.0284701 2.033 174 177 174
-0.661561 0.0283021 2.021 172 175 172
-0.661931 0.0284701 2.033 171 175 170
-0.662258 0.0286382 2.045 170 172 168
-0.658678 0.0286382 2.045 167 171 166
-0.658942 0.0288062 2.057 164 166 164
-0.659165 0.0289743 2.069 158 163 162
-0.655543 0.0289743 2.069 152 158 159
-0.651921 0.0289743 2.069 149 152 156
-0.648299 0.0289743 2.069 146 146 151
-0.648728 0.0291563 2.082 134 140 146
-0.645084 0.0291563 2.082 134 140 146
-0.641439 0.0291563 2.082 122 127 131
-0.641777 0.0293384 2.095 119 122 116
-0.63811 0.0293384 2.095 116 103 106
-0.638077 0.0295064 2.107 109 97 96
-0.638302 0.0296885 2.12 102 94 88
-0.638483 0.0298705 2.133 94 92 81
-0.634749 0.0298705 2.133 86 91 82
-0.635157 0.0300666 2.147 87 88 83
-0.631398 0.0300666 2.147 88 88 80
-0.63144 0.0302486 2.16 85 87 77
-0.631727 0.0304447 2.174 83 85 74
-0.627922 0.0304447 2.174 81 84 70
-0.624116 0.0304447 2.174 81 84 70
-0.620311 0.0304447 2.174 79 81 69
-0.620192 0.0306267 2.187 80 78 67
-0.616363 0.0306267 2.187 82 81 62
-0.612535 0.0306267 2.187 48 83 56
-0.612603 0.0308228 2.201 14 26 42
-0.612622 0.0310189 2.215 17 10 28
-0.608745 0.0310189 2.215 20 15 20
-0.608964 0.0312289 2.23 12 15 13
-0.60506 0.0312289 2.23 5 12 8
-0.604931 0.031425 2.244 6 9 4
-0.601003 0.031425 2.244 8 10 8
-0.256793 0.0191995 1.371 109 74 56
-0.254393 0.0191995 1.371 108 96 58
-0.251993 0.0191995 1.371 108 89 58
-0.249593 0.0191995 1.371 114 112 58
-0.230926 0.0190454 1.36 78 85 80
-0.227705 0.0189754 1.355 75 82 78
-0.225333 0.0189754 1.355 82 81 76
-0.221151 0.0188214 1.344 89 83 75
-0.217985 0.0187514 1.339 79 86 75
-0.215641 0.0187514 1.339 69 71 72
-0.2125 0.0186813 1.334 62 59 70
-0.209377 0.0186113 1.329 62 59 70
-0.207051 0.0186113 1.329 56 56 63
-0.203954 0.0185413 1.324 50 44 56
-0.201637 0.0185413 1.324 44 44 54
-0.199319 0.0185413 1.324 43 40 52
-0.197001 0.0185413 1.324 43 41 43
-0.194684 0.0185413 1.324 36 41 35
-0.192366 0.0185413 1.324 30 34 29
-0.191484 0.0186813 1.334 15 30 24
-0.189149 0.0186813 1.334 1 13 14
-0.186813 0.0186813 1.334 21 1 5
-0.184478 0.0186813 1.334 42 22 23
-0.182826 0.0187514 1.339 42 22 23
-0.180482 0.0187514 1.339 45 42 41
-0.178138 0.0187514 1.339 49 52 48
-0.175138 0.0186813 1.334 44 59 56
-0.172155 0.0186113 1.329 40 49 46
-0.16855 0.0184713 1.319 30 41 36
-0.165611 0.0184013 1.314 20 26 27
-0.163311 0.0184013 1.314 11 17 19
-0.161011 0.0184013 1.314 3 13 10
-0.158711 0.0184013 1.314 14 12 2
-0.156411 0.0184013 1.314 25 9 4
-0.153524 0.0183312 1.309 35 7 7
-0.150655 0.0182612 1.304 35 7 7
-0.148372 0.0182612 1.304 45 41 25
-0.14553 0.0181912 1.299 51 71 43
-0.143256 0.0181912 1.299 58 56 33
-0.140982 0.0181912 1.299 54 47 23
-0.138708 0.0181912 1.299 51 43 34
-0.136434 0.0181912 1.299 77 47 45
-0.12786 0.017337 1.238 104 76 46
-0.126607 0.017463 1.247 101 82 47
-0.124424 0.017463 1.247 99 77 44
-0.121849 0.017407 1.243 95 73 42
-0.119673 0.017407 1.243 95 73 42
-0.117497 0.017407 1.243 91 73 33
-0.114857 0.017337 1.238 84 71 24
-0.11269 0.017337 1.238 78 57 25
-0.110523 0.017337 1.238 68 53 26
-0.101792 0.0162867 1.163 58 38 20
-0.0997557 0.0162867 1.163 49 34 13
-0.098056 0.0163427 1.167 41 22 10
-0.0960132 0.0163427 1.167 32 8 8
-0.0936482 0.0162867 1.163 23 6 7
-0.0916124 0.0162867 1.163 17 2 6
-0.0895766 0.0162867 1.163 17 2 6
-0.0875408 0.0162867 1.163 11 3 5
-0.0855049 0.0162867 1.163 6 2 4
-0.0834691 0.0162867 1.163 1 2 3
-0.0811532 0.0162306 1.159 9 3 3
-0.0791244 0.0162306 1.159 17 5 2
-0.0770955 0.0162306 1.159 16 2 1
-0.0750667 0.0162306 1.159 15 4 1
-0.0730379 0.0162306 1.159 14 3 2
-0.071009 0.0162306 1.159 14 4 3
-0.0689802 0.0162306 1.159 10 3 3
-0.0671824 0.0162867 1.163 6 5 3
-0.0651466 0.0162867 1.163 6 5 3
-0.0631108 0.0162867 1.163 8 4 3
-0.0610749 0.0162867 1.163 10 5 4
-0.0590391 0.0162867 1.163 22 1 5
-0.0570033 0.0162867 1.163 34 15 3
-0.0585122 0.017337 1.238 55 19 2
-0.054178 0.017337 1.238 86 41 9
-0.0496827 0.0172809 1.234 96 76 18
-0.0453625 0.0172809 1.234 97 74 19
-0.0432023 0.0172809 1.234 104 74 19
-0.0411753 0.017337 1.238 112 77 32
-0.0390081 0.017337 1.238 117 80 45
-0.036841 0.017337 1.238 123 88 47
-0.0346739 0.017337 1.238 128 94 48
-0.0325068 0.017337 1.238 133 97 58
-0.0303397 0.017337 1.238 140 100 67
-0.0282863 0.017407 1.243 147 111 70
-0.0261105 0.017407 1.243 150 114 73
-0.0239346 0.017407 1.243 153 118 75
-0.0217587 0.017407 1.243 153 118 75
-0.0196459 0.017463 1.247 153 121 78
-0.017463 0.017463 1.247 153 123 83
-0.0152801 0.017463 1.247 151 124 88
-0.0131498 0.017533 1.252 149 116 79
-0.0109931 0.017589 1.256 147 102 69
-0.00879451 0.017589 1.256 146 81 65
-0.00662214 0.017659 1.261 144 60 61
-0.00442877 0.0177151 1.265 143 50 50
-0.00222313 0.0177851 1.27 100 48 39
0 0.0178551 1.275 57 22 31
0.00223189 0.0178551 1.275 57 22 31
0.00446378 0.0178551 1.275 52 20 23
0.00669566 0.0178551 1.275 47 32 33
0.00889254 0.0177851 1.27 42 40 42
0.0111157 0.0177851 1.27 38 42 44
0.0132863 0.0177151 1.265 36 44 45
-0.748234 0.0218235 1.781 194 189 187
-0.745116 0.0218235 1.781 192 190 187
-0.741998 0.0218235 1.781 192 186 187
-0.742615 0.0219338 1.79 192 187 189
-0.739481 0.0219338 1.79 191 187 192
-0.740462 0.0220563 1.8 191 187 192
-0.737311 0.0220563 1.8 191 185 188
-0.73416 0.0220563 1.8 189 184 184
-0.734664 0.0221666 1.809 188 181 181
-0.731497 0.0221666 1.809 186 182 179
-0.732357 0.0222891 1.819 185 185 174
-0.729173 0.0222891 1.819 182 180 169
-0.725988 0.0222891 1.819 178 179 163
-0.72638 0.0223994 1.828 183 180 157
-0.727137 0.0225219 1.838 188 189 170
-0.723919 0.0225219 1.838 191 186 184
-0.720702 0.0225219 1.838 194 188 188
-0.721388 0.0226445 1.848 195 191 192
-0.718153 0.0226445 1.848 197 202 187
-0.718787 0.022767 1.858 100 141 182
-0.715534 0.022767 1.858 100 141 182
-0.716116 0.0228895 1.868 4 1 133
-0.716662 0.0230121 1.878 89 70 85
-0.713374 0.0230121 1.878 175 184 107
-0.706306 0.0228895 1.868 103 113 129
-0.710563 0.0231346 1.888 30 1 111
-0.707258 0.0231346 1.888 110 63 93
-0.703953 0.0231346 1.888 189 250 146
-0.70473 0.0232694 1.899 193 207 200
-0.7051 0.0233919 1.909 198 186 192
-0.701758 0.0233919 1.909 194 189 184
-0.702441 0.0235267 1.92 191 187 189
-0.703085 0.0236615 1.931 192 190 194
-0.699705 0.0236615 1.931 194 197 191
-0.69993 0.023784 1.941 193 192 188
-0.696533 0.023784 1.941 193 192 188
-0.693135 0.023784 1.941 192 188 187
-0.693646 0.0239188 1.952 191 188 186
-0.690229 0.0239188 1.952 190 188 186
-0.686812 0.0239188 1.952 191 188 187
-0.687596 0.0240659 1.964 192 188 186
-0.68799 0.0242007 1.975 190 187 186
-0.684533 0.0242007 1.975 189 188 185
-0.681076 0.0242007 1.975 188 184 185
-0.681393 0.0243355 1.986 186 181 183
-0.677916 0.0243355 1.986 185 180 182
-0.67444 0.0243355 1.986 184 177 179
-0.675017 0.0244825 1.998 182 178 176
-0.67152 0.0244825 1.998 181 179 174
-0.6717 0.0246173 2.009 181 179 174
-0.668183 0.0246173 2.009 179 178 172
-0.668637 0.0247643 2.021 178 178 172
-0.669048 0.0249114 2.033 175 176 173
-0.665489 0.0249114 2.033 173 175 172
-0.661931 0.0249114 2.033 174 173 172
-0.662258 0.0250584 2.045 174 172 170
-0.662543 0.0252055 2.057 169 168 169
-0.658942 0.0252055 2.057 164 165 167
-0.659165 0.0253525 2.069 158 161 165
-0.655543 0.0253525 2.069 152 157 162
-0.651921 0.0253525 2.069 147 153 160
-0.648299 0.0253525 2.069 142 147 152
-0.648728 0.0255118 2.082 132 136 144
-0.645084 0.0255118 2.082 132 136 144
-0.641439 0.0255118 2.082 122 122 132
-0.641777 0.0256711 2.095 117 116 120
-0.63811 0.0256711 2.095 113 100 104
-0.638077 0.0258181 2.107 106 97 89
-0.638302 0.0259774 2.12 100 95 79
-0.634591 0.0259774 2.12 95 92 70
-0.634749 0.0261367 2.133 89 91 76
-0.635157 0.0263083 2.147 89 89 83
-0.631398 0.0263083 2.147 89 89 80
-0.63144 0.0264676 2.16 87 86 77
-0.631727 0.0266391 2.174 84 84 75
-0.627922 0.0266391 2.174 82 83 73
-0.624116 0.0266391 2.174 82 83 73
-0.620311 0.0266391 2.174 80 82 72
-0.620192 0.0267984 2.187 81 80 71
-0.616363 0.0267984 2.187 82 83 69
-0.612535 0.0267984 2.187 51 63 68
-0.612603 0.02697 2.201 20 7 42
-0.612622 0.0271415 2.215 20 12 16
-0.608745 0.0271415 2.215 20 19 16
-0.608964 0.0273253 2.23 12 15 16
-0.60506 0.0273253 2.23 5 13 10
-0.604931 0.0274969 2.244 7 11 5
-0.601003 0.0274969 2.244 9 12 6
-0.256793 0.0167996 1.371 107 134 100
-0.254393 0.0167996 1.371 104 106 103
-0.251993 0.0167996 1.371 101 98 102
-0.248683 0.0167383 1.366 104 101 101
-0.246292 0.0167383 1.366 108 101 105
-0.234821 0.0166035 1.355 86 94 85
-0.232449 0.0166035 1.355 83 89 84
-0.230077 0.0166035 1.355 80 85 84
-0.226865 0.0165422 1.35 78 82 81
-0.224502 0.0165422 1.35 79 81 78
-0.221151 0.0164687 1.344 80 82 76
-0.217985 0.0164074 1.339 74 74 75
-0.215641 0.0164074 1.339 68 59 70
-0.2125 0.0163462 1.334 60 58 66
-0.20859 0.0162236 1.324 60 58 66
-0.206272 0.0162236 1.324 52 55 60
-0.203184 0.0161624 1.319 47 47 55
-0.200875 0.0161624 1.319 41 42 50
-0.198566 0.0161624 1.319 40 38 46
-0.197001 0.0162236 1.324 40 39 39
-0.194684 0.0162236 1.324 33 37 33
-0.192366 0.0162236 1.324 26 34 23
-0.190766 0.0162849 1.329 17 23 14
-0.189149 0.0163462 1.334 9 7 7
-0.186113 0.0162849 1.329 32 17 1
-0.184478 0.0163462 1.334 55 37 21
-0.182143 0.0163462 1.334 55 37 21
-0.179808 0.0163462 1.334 51 43 41
-0.176808 0.0162849 1.329 47 49 44
-0.174481 0.0162849 1.329 41 47 47
-0.170859 0.0161624 1.319 35 40 39
-0.167911 0.0161011 1.314 25 31 31
-0.165611 0.0161011 1.314 15 17 20
-0.163311 0.0161011 1.314 11 13 9
-0.161011 0.0161011 1.314 7 11 6
-0.158107 0.0160398 1.309 11 10 3
-0.155816 0.0160398 1.309 15 8 5
-0.152938 0.0159786 1.304 45 28 7
-0.150655 0.0159786 1.304 45 28 7
-0.147803 0.0159173 1.299 74 73 31
-0.14553 0.0159173 1.299 62 69 56
-0.143256 0.0159173 1.299 50 48 43
-0.140982 0.0159173 1.299 49 33 30
-0.138708 0.0159173 1.299 49 34 36
-0.136434 0.0159173 1.299 77 49 43
-0.128376 0.0152311 1.243 105 90 35
-0.127114 0.0153414 1.252 103 83 28
-0.124424 0.0152801 1.247 102 78 37
-0.122241 0.0152801 1.247 98 77 46
-0.119673 0.0152311 1.243 98 77 46
-0.117497 0.0152311 1.243 94 77 38
-0.114857 0.0151698 1.238 88 73 31
-0.11269 0.0151698 1.238 82 68 25
-0.110523 0.0151698 1.238 74 58 20
-0.108356 0.0151698 1.238 67 51 18
-0.106189 0.0151698 1.238 60 43 16
-0.103686 0.0151208 1.234 52 39 14
-0.0956841 0.0142508 1.163 46 25 13
-0.0936482 0.0142508 1.163 39 7 11
-0.0916124 0.0142508 1.163 34 9 10
-0.0898847 0.0142998 1.167 34 9 10
-0.0878418 0.0142998 1.167 29 2 9
-0.085799 0.0142998 1.167 26 10 8
-0.0834691 0.0142508 1.163 23 2 5
-0.0814333 0.0142508 1.163 27 9 3
-0.0793974 0.0142508 1.163 31 10 2
-0.0773616 0.0142508 1.163 31 10 1
-0.0753258 0.0142508 1.163 30 9 1
-0.0730379 0.0142018 1.159 31 7 2
-0.0712541 0.0142508 1.163 31 4 3
-0.0692183 0.0142508 1.163 35 7 5
-0.0671824 0.0142508 1.163 38 8 4
-0.0649225 0.0142018 1.159 38 8 4
-0.0628937 0.0142018 1.159 42 12 4
-0.0608649 0.0142018 1.159 46 11 6
-0.0628465 0.0151698 1.238 55 27 9
-0.0606793 0.0151698 1.238 64 39 5
-0.0585122 0.0151698 1.238 77 47 1
-0.0563451 0.0151698 1.238 89 63 3
-0.054178 0.0151698 1.238 95 65 5
-0.0518428 0.0151208 1.234 101 81 17
-0.0496827 0.0151208 1.234 102 76 30
-0.0475226 0.0151208 1.234 104 72 30
-0.0453625 0.0151208 1.234 104 72 30
-0.0432023 0.0151208 1.234 111 80 30
-0.0411753 0.0151698 1.238 118 86 37
-0.0390081 0.0151698 1.238 123 86 45
-0.036841 0.0151698 1.238 127 93 48
-0.0346739 0.0151698 1.238 132 96 51
-0.0325068 0.0151698 1.238 137 101 60
-0.0304622 0.0152311 1.243 143 108 70
-0.0282863 0.0152311 1.243 149 119 73
-0.0261105 0.0152311 1.243 154 116 77
-0.0239346 0.0152311 1.243 158 118 77
-0.0217587 0.0152311 1.243 158 118 77
-0.0196459 0.0152801 1.247 156 120 78
-0.017463 0.0152801 1.247 154 123 79
-0.0152801 0.0152801 1.247 152 122 80
-0.0131498 0.0153414 1.252 151 117 74
-0.0109931 0.0153904 1.256 151 94 69
-0.00879451 0.0153904 1.256 151 72 65
-0.00662214 0.0154517 1.261 141 57 61
-0.00442877 0.0155007 1.265 132 49 47
-0.00222313 0.0155619 1.27 100 48 39
0 0.0155619 1.27 57 22 31
0.00222313 0.0155619 1.27 57 22 31
0.00446378 0.0156232 1.275 52 20 23
0.0066694 0.0155619 1.27 47 32 33
0.00889254 0.0155619 1.27 42 40 42
0.0111157 0.0155619 1.27 38 42 44
0.0132863 0.0155007 1.265 36 44 45
-0.748234 0.0187058 1.781 194 191 189
-0.745116 0.0187058 1.781 193 187 187
-0.745748 0.0188004 1.79 192 182 186
-0.742615 0.0188004 1.79 192 186 187
-0.739481 0.0188004 1.79 191 189 188
-0.740462 0.0189054 1.8 191 189 188
-0.737311 0.0189054 1.8 190 186 185
-0.737831 0.0189999 1.809 189 185 182
-0.734664 0.0189999 1.809 188 183 181
-0.735541 0.019105 1.819 187 183 180
-0.732357 0.019105 1.819 186 181 175
-0.73278 0.0191995 1.828 185 176 170
-0.72958 0.0191995 1.828 185 177 166
-0.72638 0.0191995 1.828 187 179 162
-0.727137 0.0193045 1.838 189 186 171
-0.723919 0.0193045 1.838 189 190 181
-0.720702 0.0193045 1.838 190 187 183
-0.721388 0.0194095 1.848 196 188 186
-0.718153 0.0194095 1.848 202 198 184
-0.718787 0.0195146 1.858 102 196 181
-0.715534 0.0195146 1.858 2 49 119
-0.716116 0.0196196 1.868 2 49 119
-0.716662 0.0197246 1.878 96 1 56
-0.713374 0.0197246 1.878 191 142 104
-0.710087 0.0197246 1.878 119 167 152
-0.710563 0.0198297 1.888 47 42 100
-0.707258 0.0198297 1.888 110 1 47
-0.708055 0.0199452 1.899 173 156 113
-0.708441 0.0200502 1.909 188 190 178
-0.7051 0.0200502 1.909 203 192 182
-0.705802 0.0201658 1.92 197 192 187
-0.702441 0.0201658 1.92 191 188 185
-0.703085 0.0202813 1.931 193 188 184
-0.699705 0.0202813 1.931 196 194 185
-0.69993 0.0203863 1.941 194 194 187
-0.696533 0.0203863 1.941 194 194 187
-0.693135 0.0203863 1.941 192 189 186
-0.693646 0.0205019 1.952 191 189 186
-0.690229 0.0205019 1.952 190 189 186
-0.691034 0.0206279 1.964 190 189 186
-0.687596 0.0206279 1.964 191 187 185
-0.68799 0.0207434 1.975 190 188 184
-0.684533 0.0207434 1.975 189 186 184
-0.681076 0.0207434 1.975 187 181 183
-0.681393 0.020859 1.986 186 180 181
-0.677916 0.020859 1.986 185 180 179
-0.67444 0.020859 1.986 184 177 176
-0.675017 0.020985 1.998 183 177 174
-0.675217 0.0211005 2.009 183 178 172
-0.6717 0.0211005 2.009 183 178 172
-0.672175 0.0212266 2.021 181 178 171
-0.668637 0.0212266 2.021 179 176 173
-0.669048 0.0213526 2.033 177 174 175
-0.665489 0.0213526 2.033 175 173 173
-0.661931 0.0213526 2.033 177 171 171
-0.662258 0.0214786 2.045 179 170 169
-0.662543 0.0216047 2.057 171 167 167
-0.658942 0.0216047 2.057 164 163 165
-0.659165 0.0217307 2.069 158 159 163
-0.655543 0.0217307 2.069 152 158 159
-0.651921 0.0217307 2.069 145 159 156
-0.652373 0.0218672 2.082 139 147 151
-0.648728 0.0218672 2.082 131 137 147
-0.645084 0.0218672 2.082 131 137 147
-0.641439 0.0218672 2.082 123 125 131
-0.641777 0.0220038 2.095 116 122 115
-0.641765 0.0221298 2.107 110 104 106
-0.638077 0.0221298 2.107 104 97 96
-0.638302 0.0222664 2.12 99 94 88
-0.634591 0.0222664 2.12 96 92 79
-0.634749 0.0224029 2.133 93 91 80
-0.635157 0.0225499 2.147 92 91 82
-0.631398 0.0225499 2.147 91 88 81
-0.63144 0.0226865 2.16 88 84 80
-0.627659 0.0226865 2.16 86 82 77
-0.627922 0.0228335 2.174 83 82 75
-0.624116 0.0228335 2.174 83 82 75
-0.620311 0.0228335 2.174 81 81 73
-0.620192 0.0229701 2.187 81 80 71
-0.616363 0.0229701 2.187 82 81 70
-0.612535 0.0229701 2.187 54 81 70
-0.612603 0.0231171 2.201 26 28 42
-0.612622 0.0232641 2.215 23 12 15
-0.608745 0.0232641 2.215 21 16 14
-0.608964 0.0234217 2.23 13 15 14
-0.60506 0.0234217 2.23 5 12 8
-0.601157 0.0234217 2.23 7 10 3
-0.601003 0.0235687 2.244 10 12 6
-0.256168 0.0142316 1.355 101 101 92
-0.254733 0.0142841 1.36 105 107 94
-0.252352 0.0142841 1.36 100 97 97
-0.249971 0.0142841 1.36 95 94 97
-0.247591 0.0142841 1.36 95 93 97
-0.243407 0.0141791 1.35 96 92 97
-0.241937 0.0142316 1.355 96 92 97
-0.239565 0.0142316 1.355 91 93 98
-0.237193 0.0142316 1.355 87 93 90
-0.234821 0.0142316 1.355 86 93 81
-0.232449 0.0142316 1.355 85 87 81
-0.230077 0.0142316 1.355 83 85 82
-0.227705 0.0142316 1.355 81 81 80
-0.224502 0.0141791 1.35 76 82 78
-0.220328 0.0140635 1.339 71 77 75
-0.217985 0.0140635 1.339 69 72 72
-0.214835 0.014011 1.334 67 64 66
-0.2125 0.014011 1.334 58 62 61
-0.20859 0.013906 1.324 58 62 61
-0.205493 0.0138535 1.319 49 55 56
-0.203184 0.0138535 1.319 44 49 52
-0.200875 0.0138535 1.319 39 39 47
-0.197814 0.0138009 1.314 38 33 43
-0.195513 0.0138009 1.314 37 35 36
-0.193948 0.0138535 1.319 29 37 29
-0.191639 0.0138535 1.319 22 31 20
-0.189331 0.0138535 1.319 20 21 12
-0.189149 0.014011 1.334 18 19 9
-0.186813 0.014011 1.334 43 23 7
-0.184478 0.014011 1.334 68 40 28
-0.182143 0.014011 1.334 68 40 28
-0.179808 0.014011 1.334 56 47 49
-0.176142 0.013906 1.324 45 44 43
-0.173168 0.0138535 1.319 37 42 36
-0.170212 0.0138009 1.314 30 33 28
-0.167911 0.0138009 1.314 20 26 20
-0.164981 0.0137484 1.309 11 15 14
-0.16269 0.0137484 1.309 11 10 8
-0.160398 0.0137484 1.309 11 10 5
-0.158107 0.0137484 1.309 8 12 3
-0.155816 0.0137484 1.309 6 13 8
-0.152938 0.0136959 1.304 55 25 14
-0.150077 0.0136434 1.299 55 25 14
-0.147803 0.0136434 1.299 104 75 32
-0.14553 0.0136434 1.299 73 84 50
-0.143256 0.0136434 1.299 42 34 35
-0.140982 0.0136434 1.299 44 4 20
-0.138708 0.0136434 1.299 47 17 27
-0.136434 0.0136434 1.299 76 26 34
-0.129306 0.0131498 1.252 106 69 29
-0.127114 0.0131498 1.252 105 84 24
-0.124424 0.0130972 1.247 105 81 34
-0.122241 0.0130972 1.247 101 80 45
-0.119673 0.0130552 1.243 101 80 45
-0.117497 0.0130552 1.243 97 78 39
-0.115321 0.0130552 1.243 91 77 33
-0.11269 0.0130027 1.238 86 70 29
-0.110523 0.0130027 1.238 81 60 25
-0.108356 0.0130027 1.238 77 57 21
-0.105846 0.0129607 1.234 70 48 17
-0.103686 0.0129607 1.234 64 45 19
-0.100785 0.0128662 1.225 46 25 13
-0.0986407 0.0128662 1.225 39 7 11
-0.0922426 0.012299 1.171 34 9 10
-0.0901928 0.012299 1.171 34 9 10
-0.0881429 0.012299 1.171 29 2 9
-0.0860931 0.012299 1.171 26 10 8
-0.0837562 0.012257 1.167 23 2 5
-0.0817133 0.012257 1.167 27 9 3
-0.0793974 0.012215 1.163 31 10 2
-0.0773616 0.012215 1.163 31 10 1
-0.0753258 0.012215 1.163 30 9 1
-0.0730379 0.012173 1.159 31 7 2
-0.0712541 0.012215 1.163 31 4 3
-0.0692183 0.012215 1.163 35 7 5
-0.0671824 0.012215 1.163 38 8 4
-0.0691237 0.0129607 1.234 38 8 4
-0.0671807 0.0130027 1.238 42 12 4
-0.0650136 0.0130027 1.238 46 11 6
-0.0628465 0.0130027 1.238 55 27 9
-0.0606793 0.0130027 1.238 64 39 5
-0.0585122 0.0130027 1.238 77 47 1
-0.0563451 0.0130027 1.238 89 63 3
-0.054178 0.0130027 1.238 95 65 5
-0.0518428 0.0129607 1.234 101 81 17
-0.0496827 0.0129607 1.234 102 76 30
-0.0475226 0.0129607 1.234 104 72 30
-0.0455095 0.0130027 1.238 104 72 30
-0.0433424 0.0130027 1.238 111 80 30
-0.0411753 0.0130027 1.238 118 86 37
-0.0390081 0.0130027 1.238 123 86 45
-0.036841 0.0130027 1.238 127 93 48
-0.0348139 0.0130552 1.243 132 96 51
-0.0326381 0.0130552 1.243 137 101 60
-0.0304622 0.0130552 1.243 143 108 70
-0.0282863 0.0130552 1.243 149 119 73
-0.0261105 0.0130552 1.243 154 116 77
-0.0239346 0.0130552 1.243 158 118 77
-0.0218287 0.0130972 1.247 158 118 77
-0.0196459 0.0130972 1.247 156 120 78
-0.017533 0.0131498 1.252 154 123 79
-0.0153414 0.0131498 1.252 152 122 80
-0.0131498 0.0131498 1.252 151 117 74
-0.0109931 0.0131918 1.256 151 94 69
-0.00879451 0.0131918 1.256 151 72 65
-0.00662214 0.0132443 1.261 141 57 61
-0.00442877 0.0132863 1.265 132 49 47
-0.00222313 0.0133388 1.27 92 32 34
0 0.0133388 1.27 51 14 37
0.00222313 0.0133388 1.27 51 14 37
0.00446378 0.0133913 1.275 48 24 41
0.0066694 0.0133388 1.27 45 40 43
0.00889254 0.0133388 1.27 42 40 46
0.0110719 0.0132863 1.265 39 42 46
0.0132443 0.0132443 1.261 36 42 47
-0.748234 0.0155882 1.781 193 188 191
-0.745116 0.0155882 1.781 192 188 188
-0.745748 0.015667 1.79 193 185 186
-0.742615 0.015667 1.79 194 186 185
-0.743612 0.0157545 1.8 192 187 185
-0.740462 0.0157545 1.8 192 187 185
-0.737311 0.0157545 1.8 190 186 183
-0.737831 0.0158333 1.809 188 184 181
-0.734664 0.0158333 1.809 187 183 181
-0.735541 0.0159208 1.819 186 183 181
-0.732357 0.0159208 1.819 185 182 176
-0.73278 0.0159996 1.828 186 177 171
-0.72958 0.0159996 1.828 186 177 169
-0.72638 0.0159996 1.828 188 180 168
-0.727137 0.0160871 1.838 190 188 173
-0.723919 0.0160871 1.838 189 187 178
-0.720702 0.0160871 1.838 189 183 179
-0.721388 0.0161746 1.848 196 190 181
-0.718153 0.0161746 1.848 203 206 181
-0.718787 0.0162621 1.858 106 152 181
-0.715534 0.0162621 1.858 10 1 104
-0.716116 0.0163497 1.868 10 1 104
-0.716662 0.0164372 1.878 98 55 28
-0.713374 0.0164372 1.878 187 217 102
-0.710087 0.0164372 1.878 124 151 176
-0.710563 0.0165247 1.888 62 1 89
-0.707258 0.0165247 1.888 100 46 2
-0.708055 0.016621 1.899 139 183 79
-0.708441 0.0167085 1.909 170 164 157
-0.7051 0.0167085 1.909 201 203 173
-0.705802 0.0168048 1.92 195 195 190
-0.702441 0.0168048 1.92 190 188 182
-0.703085 0.0169011 1.931 191 190 174
-0.699705 0.0169011 1.931 193 197 180
-0.69993 0.0169886 1.941 192 192 186
-0.696533 0.0169886 1.941 192 192 186
-0.693135 0.0169886 1.941 191 188 186
-0.693646 0.0170849 1.952 190 188 186
-0.690229 0.0170849 1.952 190 190 186
-0.691034 0.0171899 1.964 189 187 186
-0.687596 0.0171899 1.964 189 186 184
-0.68799 0.0172862 1.975 188 187 183
-0.684533 0.0172862 1.975 188 188 182
-0.681076 0.0172862 1.975 188 182 182
-0.681393 0.0173825 1.986 188 181 179
-0.677916 0.0173825 1.986 186 179 177
-0.67444 0.0173825 1.986 185 177 174
-0.675017 0.0174875 1.998 184 177 172
-0.675217 0.0175838 2.009 183 178 171
-0.6717 0.0175838 2.009 183 178 171
-0.672175 0.0176888 2.021 181 176 171
-0.668637 0.0176888 2.021 179 175 174
-0.669048 0.0177938 2.033 177 174 178
-0.665489 0.0177938 2.033 175 174 174
-0.661931 0.0177938 2.033 175 172 171
-0.662258 0.0178989 2.045 176 172 168
-0.662543 0.0180039 2.057 170 168 166
-0.658942 0.0180039 2.057 165 163 163
-0.659165 0.0181089 2.069 160 160 161
-0.655543 0.0181089 2.069 155 160 156
-0.651921 0.0181089 2.069 145 153 152
-0.652373 0.0182227 2.082 135 145 151
-0.648728 0.0182227 2.082 129 136 151
-0.645084 0.0182227 2.082 129 136 151
-0.641439 0.0182227 2.082 123 122 131
-0.641777 0.0183365 2.095 116 116 111
-0.641765 0.0184415 2.107 110 98 107
-0.638077 0.0184415 2.107 104 96 104
-0.638302 0.0185553 2.12 98 95 96
-0.634591 0.0185553 2.12 96 92 89
-0.634749 0.0186691 2.133 93 93 85
-0.631015 0.0186691 2.133 92 90 81
-0.631398 0.0187916 2.147 90 88 82
-0.62764 0.0187916 2.147 87 84 83
-0.627659 0.0189054 2.16 84 80 80
-0.623878 0.0189054 2.16 83 80 77
-0.624116 0.0190279 2.174 83 80 77
-0.620311 0.0190279 2.174 81 80 74
-0.620192 0.0191417 2.187 79 80 71
-0.616363 0.0191417 2.187 76 82 71
-0.616456 0.0192643 2.201 55 65 72
-0.6165 0.0193868 2.215 34 15 43
-0.612622 0.0193868 2.215 27 15 14
-0.612868 0.0195181 2.23 19 18 13
-0.608964 0.0195181 2.23 15 15 12
-0.60506 0.0195181 2.23 11 12 7
-0.601157 0.0195181 2.23 12 11 2
-0.601003 0.0196406 2.244 13 12 5
-0.254089 0.0117634 1.344 96 93 87
-0.250799 0.0117196 1.339 110 99 89
-0.248455 0.0117196 1.339 101 98 91
-0.246112 0.0117196 1.339 93 89 92
-0.244678 0.0117634 1.344 91 86 93
-0.242325 0.0117634 1.344 89 83 90
-0.239973 0.0117634 1.344 89 83 90
-0.23762 0.0117634 1.344 84 86 88
-0.236318 0.0118159 1.35 80 89 83
-0.233954 0.0118159 1.35 80 87 78
-0.231591 0.0118159 1.35 80 84 79
-0.229228 0.0118159 1.35 78 81 80
-0.225857 0.0117634 1.344 81 81 80
-0.224502 0.0118159 1.35 76 82 78
-0.220328 0.0117196 1.339 71 77 75
-0.217171 0.0116758 1.334 69 72 72
-0.21403 0.0116321 1.329 67 64 66
-0.210111 0.0115445 1.319 58 62 61
-0.207802 0.0115445 1.319 58 62 61
-0.204714 0.0115008 1.314 49 55 56
-0.202414 0.0115008 1.314 44 49 52
-0.200114 0.0115008 1.314 39 39 47
-0.197814 0.0115008 1.314 38 33 43
-0.196257 0.0115445 1.319 37 35 36
-0.193213 0.0115008 1.314 29 37 29
-0.191639 0.0115445 1.319 22 31 20
-0.189331 0.0115445 1.319 20 21 12
-0.187022 0.0115445 1.319 18 19 9
-0.184713 0.0115445 1.319 43 23 7
-0.183787 0.0116321 1.329 68 40 28
-0.182143 0.0116758 1.334 68 40 28
-0.179134 0.0116321 1.329 56 47 49
-0.174812 0.0115008 1.314 45 44 43
-0.171855 0.011457 1.309 37 42 36
-0.169564 0.011457 1.309 30 33 28
-0.167273 0.011457 1.309 20 26 20
-0.164981 0.011457 1.309 11 15 14
-0.16269 0.011457 1.309 11 10 8
-0.160398 0.011457 1.309 11 10 5
-0.158107 0.011457 1.309 8 12 3
-0.155816 0.011457 1.309 6 13 8
-0.152938 0.0114133 1.304 55 25 14
-0.150077 0.0113695 1.299 55 25 14
-0.147803 0.0113695 1.299 104 75 32
-0.14553 0.0113695 1.299 73 84 50
-0.143256 0.0113695 1.299 42 34 35
-0.140982 0.0113695 1.299 44 4 20
-0.138708 0.0113695 1.299 47 17 27
-0.136434 0.0113695 1.299 76 26 34
-0.13416 0.0113695 1.299 106 69 29
-0.126607 0.0109144 1.247 105 84 24
-0.124424 0.0109144 1.247 105 81 34
-0.121849 0.0108794 1.243 101 80 45
-0.119673 0.0108794 1.243 101 80 45
-0.117024 0.0108356 1.238 97 78 39
-0.114857 0.0108356 1.238 91 77 33
-0.11269 0.0108356 1.238 86 70 29
-0.110523 0.0108356 1.238 81 60 25
-0.108006 0.0108006 1.234 77 57 21
-0.105846 0.0108006 1.234 70 48 17
-0.103265 0.0107568 1.229 64 45 19
-0.100785 0.0107218 1.225 60 46 21
-0.0986407 0.0107218 1.225 56 30 18
-0.0964963 0.0107218 1.225 51 25 15
-0.0905008 0.0102842 1.175 51 25 15
-0.088444 0.0102842 1.175 47 25 14
-0.0863872 0.0102842 1.175 46 34 14
-0.0843303 0.0102842 1.175 45 23 9
-0.0822735 0.0102842 1.175 45 21 5
-0.0802167 0.0102842 1.175 46 23 3
-0.0781598 0.0102842 1.175 46 21 2
-0.0787585 0.010643 1.216 46 20 3
-0.076945 0.0106868 1.221 47 14 5
-0.0748076 0.0106868 1.221 49 16 6
-0.0712839 0.0108006 1.234 71 24 4
-0.0691237 0.0108006 1.234 71 24 4
-0.0671807 0.0108356 1.238 76 26 2
-0.0650136 0.0108356 1.238 82 40 5
-0.0628465 0.0108356 1.238 88 58 8
-0.0606793 0.0108356 1.238 95 57 10
-0.0585122 0.0108356 1.238 99 68 13
-0.0563451 0.0108356 1.238 103 69 16
-0.054178 0.0108356 1.238 104 76 19
-0.0518428 0.0108006 1.234 106 78 28
-0.0496827 0.0108006 1.234 109 77 38
-0.0475226 0.0108006 1.234 112 80 37
-0.0455095 0.0108356 1.238 112 80 37
-0.0433424 0.0108356 1.238 118 88 37
-0.0411753 0.0108356 1.238 125 87 43
-0.0390081 0.0108356 1.238 128 87 49
-0.036841 0.0108356 1.238 132 95 52
-0.0348139 0.0108794 1.243 137 96 55
-0.0326381 0.0108794 1.243 142 105 61
-0.0304622 0.0108794 1.243 147 113 67
-0.0282863 0.0108794 1.243 152 115 71
-0.0261105 0.0108794 1.243 158 116 76
-0.0239346 0.0108794 1.243 164 117 80
-0.0218287 0.0109144 1.247 164 117 80
-0.0196459 0.0109144 1.247 160 121 84
-0.017533 0.0109581 1.252 156 123 79
-0.0153414 0.0109581 1.252 154 124 74
-0.0131498 0.0109581 1.252 153 102 74
-0.0109931 0.0109931 1.256 154 88 74
-0.00879451 0.0109931 1.256 156 63 64
-0.00662214 0.0110369 1.261 139 48 53
-0.00442877 0.0110719 1.265 122 33 44
-0.00222313 0.0111157 1.27 84 18 36
0 0.0111157 1.27 46 20 32
0.00222313 0.0111157 1.27 46 20 32
0.00444627 0.0111157 1.27 45 25 28
0.0066694 0.0111157 1.27 44 35 36
0.00889254 0.0111157 1.27 42 39 43
0.0110369 0.0110369 1.261 40 40 44
0.0132443 0.0110369 1.261 37 41 45
-0.748234 0.0124706 1.781 192 186 190
-0.745116 0.0124706 1.781 192 186 187
-0.741998 0.0124706 1.781 194 187 185
-0.742615 0.0125336 1.79 197 186 185
-0.739481 0.0125336 1.79 193 187 185
-0.740462 0.0126036 1.8 193 187 185
-0.737311 0.0126036 1.8 190 184 183
-0.737831 0.0126666 1.809 188 183 181
-0.734664 0.0126666 1.809 187 183 183
-0.735541 0.0127366 1.819 186 185 185
-0.732357 0.0127366 1.819 185 180 174
-0.73278 0.0127997 1.828 186 176 163
-0.72958 0.0127997 1.828 188 176 167
-0.72638 0.0127997 1.828 189 178 170
-0.727137 0.0128697 1.838 191 185 174
-0.723919 0.0128697 1.838 190 187 179
-0.720702 0.0128697 1.838 189 186 180
-0.721388 0.0129397 1.848 196 186 181
-0.718153 0.0129397 1.848 204 200 182
-0.718787 0.0130097 1.858 111 208 183
-0.719386 0.0130797 1.868 19 53 115
-0.716116 0.0130797 1.868 19 53 115
-0.716662 0.0131498 1.878 101 3 48
-0.713374 0.0131498 1.878 183 163 109
-0.710087 0.0131498 1.878 130 219 171
-0.710563 0.0132198 1.888 77 55 103
-0.707258 0.0132198 1.888 91 1 35
-0.708055 0.0132968 1.899 106 76 85
-0.70473 0.0132968 1.899 152 83 135
-0.7051 0.0133668 1.909 199 179 165
-0.705802 0.0134438 1.92 194 199 195
-0.702441 0.0134438 1.92 189 189 187
-0.703085 0.0135209 1.931 190 187 178
-0.699705 0.0135209 1.931 191 191 182
-0.69993 0.0135909 1.941 191 190 186
-0.696533 0.0135909 1.941 191 190 186
-0.693135 0.0135909 1.941 191 190 186
-0.693646 0.0136679 1.952 190 187 187
-0.690229 0.0136679 1.952 190 187 187
-0.691034 0.0137519 1.964 188 186 187
-0.687596 0.0137519 1.964 187 186 185
-0.68799 0.013829 1.975 187 187 184
-0.684533 0.013829 1.975 188 184 182
-0.684869 0.013906 1.986 189 181 181
-0.681393 0.013906 1.986 190 181 179
-0.677916 0.013906 1.986 188 181 177
-0.67444 0.013906 1.986 186 180 175
-0.675017 0.01399 1.998 184 177 174
-0.675217 0.014067 2.009 183 176 173
-0.6717 0.014067 2.009 183 176 173
-0.672175 0.014151 2.021 181 176 171
-0.668637 0.014151 2.021 180 175 173
-0.665099 0.014151 2.021 177 173 175
-0.665489 0.0142351 2.033 175 173 172
-0.661931 0.0142351 2.033 174 172 169
-0.662258 0.0143191 2.045 174 172 167
-0.662543 0.0144031 2.057 170 172 164
-0.658942 0.0144031 2.057 166 165 162
-0.659165 0.0144871 2.069 162 161 160
-0.655543 0.0144871 2.069 158 157 157
-0.651921 0.0144871 2.069 145 148 154
-0.652373 0.0145782 2.082 132 142 147
-0.648728 0.0145782 2.082 128 140 141
-0.645084 0.0145782 2.082 128 140 141
-0.641439 0.0145782 2.082 124 127 128
-0.641777 0.0146692 2.095 117 123 116
-0.641765 0.0147532 2.107 110 105 112
-0.638077 0.0147532 2.107 104 96 108
-0.638302 0.0148442 2.12 98 93 101
-0.634591 0.0148442 2.12 96 91 93
-0.634749 0.0149353 2.133 94 91 89
-0.631015 0.0149353 2.133 92 90 85
-0.631398 0.0150333 2.147 90 87 84
-0.62764 0.0150333 2.147 86 85 83
-0.627659 0.0151243 2.16 83 82 80
-0.623878 0.0151243 2.16 82 81 78
-0.624116 0.0152223 2.174 82 81 78
-0.620311 0.0152223 2.174 82 79 74
-0.620192 0.0153134 2.187 76 79 70
-0.616363 0.0153134 2.187 71 81 66
-0.616456 0.0154114 2.201 57 82 62
-0.6165 0.0155094 2.215 43 35 44
-0.612622 0.0155094 2.215 30 17 26
-0.612868 0.0156145 2.23 18 17 19
-0.608964 0.0156145 2.23 17 15 13
-0.60506 0.0156145 2.23 17 13 10
-0.604931 0.0157125 2.244 17 12 8
-0.601003 0.0157125 2.244 17 15 9
-0.254533 0.00934067 1.334 82 87 92
